ply
format ascii 1.0
comment Created by Open3D
obj_info Generated by CloudCompare!
element vertex 568
property float x
property float y
property float z
property uchar red
property uchar green
property uchar blue
end_header
0.102539 -0.103078 0.430664 137 89 99 
0.097021 -0.102539 0.430664 139 86 97 
0.102539 -0.102539 0.426336 137 87 98 
0.102539 -0.104307 0.436523 136 91 100 
0.096680 -0.103386 0.436523 135 87 97 
0.096680 -0.102539 0.430895 139 86 97 
0.102539 -0.105305 0.442383 134 91 100 
0.096680 -0.103930 0.442383 133 89 97 
0.102539 -0.106406 0.448242 132 92 100 
0.096680 -0.104795 0.448242 130 90 97 
0.102539 -0.106482 0.454102 127 90 98 
0.096680 -0.104986 0.454102 125 88 95 
0.102539 -0.102681 0.459961 116 84 95 
0.101847 -0.102539 0.459961 116 84 95 
0.096680 -0.102539 0.458162 121 84 94 
0.102539 -0.102539 0.460215 116 84 95 
0.102539 -0.098370 0.418945 138 83 96 
0.096680 -0.096991 0.418945 133 79 93 
0.102539 -0.096680 0.415596 137 80 94 
0.096680 -0.096680 0.418121 133 78 93 
0.102539 -0.101951 0.424805 137 86 98 
0.096680 -0.099135 0.424805 135 82 94 
0.096680 -0.102457 0.430664 139 86 97 
0.096680 -0.101830 0.459961 118 83 94 
0.102539 -0.100920 0.465820 126 94 108 
0.096680 -0.101028 0.465820 102 77 91 
0.102539 -0.091952 0.413086 139 80 95 
0.101301 -0.090820 0.413086 138 80 95 
0.102539 -0.090820 0.412445 139 81 96 
0.096680 -0.090820 0.415421 131 76 93 
0.108398 -0.103176 0.424805 140 92 102 
0.103752 -0.102539 0.424805 138 88 99 
0.108398 -0.102539 0.421625 141 91 103 
0.108398 -0.104120 0.430664 137 92 102 
0.108398 -0.104846 0.436523 137 93 102 
0.108398 -0.105746 0.442383 134 94 102 
0.108398 -0.106757 0.448242 133 95 103 
0.108398 -0.107096 0.454102 130 94 102 
0.103209 -0.102539 0.459961 117 85 96 
0.108398 -0.102539 0.458992 128 92 102 
0.108398 -0.100156 0.418945 142 90 102 
0.108398 -0.096680 0.413986 144 87 102 
0.108398 -0.101694 0.459961 132 95 107 
0.108398 -0.099830 0.465820 137 97 114 
0.108398 -0.095031 0.413086 144 87 102 
0.108398 -0.090820 0.410752 145 88 102 
0.114258 -0.103125 0.424805 141 96 106 
0.114258 -0.102539 0.421553 142 95 106 
0.114258 -0.103926 0.430664 139 96 106 
0.114258 -0.104680 0.436523 137 97 106 
0.114258 -0.106032 0.442383 133 98 105 
0.114258 -0.107385 0.448242 129 98 105 
0.114258 -0.107117 0.454102 126 98 104 
0.114258 -0.102539 0.458421 138 99 110 
0.114258 -0.100351 0.418945 143 94 107 
0.114258 -0.096680 0.413685 147 94 108 
0.114258 -0.101255 0.459961 144 103 117 
0.114258 -0.100747 0.465820 140 101 114 
0.114258 -0.100294 0.471680 134 99 112 
0.108398 -0.100314 0.471680 133 97 112 
0.114258 -0.095562 0.413086 147 94 108 
0.114258 -0.090820 0.410547 149 95 110 
0.117546 -0.102539 0.424805 141 99 109 
0.120117 -0.103046 0.430664 137 100 109 
0.120117 -0.102539 0.427771 139 101 110 
0.120117 -0.103802 0.436523 135 100 108 
0.120117 -0.104736 0.442383 131 99 107 
0.120117 -0.105740 0.448242 129 100 107 
0.120117 -0.105742 0.454102 131 103 109 
0.120117 -0.102539 0.457222 141 102 112 
0.120117 -0.098567 0.418945 144 100 111 
0.120117 -0.096680 0.414800 146 100 111 
0.120117 -0.101240 0.424805 141 101 110 
0.120117 -0.100597 0.459961 148 105 117 
0.120117 -0.100757 0.465820 142 104 115 
0.120117 -0.093777 0.413086 147 100 113 
0.120117 -0.090820 0.411297 148 100 114 
0.121433 -0.102539 0.430664 136 101 109 
0.125360 -0.102539 0.436523 130 101 108 
0.125977 -0.103170 0.442383 128 101 107 
0.125977 -0.102539 0.437748 129 101 108 
0.125977 -0.104064 0.448242 127 102 108 
0.125977 -0.103455 0.454102 131 106 111 
0.125977 -0.102539 0.457828 136 107 113 
0.125977 -0.096885 0.418945 138 102 111 
0.125977 -0.096680 0.418355 139 102 111 
0.125977 -0.098470 0.424805 135 102 110 
0.125977 -0.100050 0.430664 132 102 109 
0.125977 -0.102270 0.436523 130 102 108 
0.125977 -0.101875 0.459961 139 109 115 
0.125977 -0.100672 0.465820 136 109 114 
0.124974 -0.090820 0.413086 146 101 115 
0.125977 -0.090820 0.413462 145 101 115 
0.126791 -0.102539 0.442383 127 101 107 
0.127613 -0.102539 0.448242 125 102 108 
0.127004 -0.102539 0.454102 131 106 111 
0.126400 -0.096680 0.418945 138 102 111 
0.130078 -0.096680 0.424805 131 102 109 
0.131836 -0.097216 0.430664 126 102 108 
0.131836 -0.096680 0.427922 127 102 108 
0.131836 -0.098393 0.436523 125 102 108 
0.131836 -0.099440 0.442383 122 102 107 
0.131836 -0.099595 0.448242 120 104 108 
0.131836 -0.099434 0.454102 126 106 110 
0.131836 -0.099265 0.459961 130 109 112 
0.131836 -0.099854 0.465820 125 107 109 
0.131836 -0.091215 0.418945 136 102 114 
0.131836 -0.090820 0.418345 137 102 114 
0.131836 -0.094774 0.424805 130 102 110 
0.132432 -0.096680 0.430664 126 102 108 
0.133769 -0.096680 0.436523 124 102 108 
0.135328 -0.096680 0.442383 120 101 107 
0.135102 -0.096680 0.448242 119 103 108 
0.134700 -0.096680 0.454102 126 106 111 
0.134743 -0.096680 0.459961 129 109 112 
0.135451 -0.096680 0.465820 123 107 109 
0.132236 -0.090820 0.418945 136 102 114 
0.136586 -0.090820 0.424805 125 103 111 
0.137695 -0.091314 0.430664 123 104 110 
0.137695 -0.090820 0.427174 123 104 110 
0.137695 -0.092743 0.436523 122 103 109 
0.137695 -0.093935 0.442383 119 102 108 
0.137695 -0.093651 0.448242 119 104 109 
0.137695 -0.093019 0.454102 124 107 112 
0.137695 -0.093165 0.459961 127 110 114 
0.137695 -0.094221 0.465820 122 107 111 
0.138184 -0.090820 0.430664 123 104 110 
0.139522 -0.090820 0.436523 120 103 109 
0.140489 -0.090820 0.442383 117 102 108 
0.140548 -0.090820 0.448242 116 104 108 
0.140037 -0.090820 0.454102 121 107 111 
0.140032 -0.090820 0.459961 124 109 113 
0.141001 -0.090820 0.465820 119 108 110 
0.096903 -0.084961 0.413086 133 77 95 
0.102539 -0.084961 0.410254 139 82 97 
0.096680 -0.084961 0.413199 133 77 95 
0.096680 -0.084526 0.413086 133 77 95 
0.102539 -0.079102 0.409249 137 83 98 
0.096680 -0.079102 0.411670 131 78 94 
0.102539 -0.073242 0.408920 134 85 99 
0.096680 -0.073242 0.411125 130 80 95 
0.102539 -0.067383 0.409259 129 83 98 
0.096680 -0.067383 0.411195 128 80 94 
0.102539 -0.061523 0.410293 126 80 96 
0.096680 -0.061523 0.412153 123 78 92 
0.100729 -0.055664 0.413086 122 81 95 
0.096680 -0.059308 0.413086 121 78 92 
0.102539 -0.055664 0.412387 124 82 96 
0.096680 -0.055664 0.414662 119 79 92 
0.102539 -0.054667 0.413086 123 82 97 
0.098697 -0.049805 0.418945 118 83 93 
0.096680 -0.051130 0.418945 116 81 91 
0.102539 -0.049805 0.416545 122 85 98 
0.096680 -0.049805 0.420178 115 82 91 
0.102539 -0.048197 0.418945 120 86 98 
0.102539 -0.044219 0.424805 116 87 96 
0.096680 -0.047695 0.424805 113 83 90 
0.097658 -0.043945 0.430664 114 87 92 
0.096680 -0.044516 0.430664 113 86 91 
0.102539 -0.043945 0.425180 116 87 96 
0.096680 -0.043945 0.431763 113 87 91 
0.102539 -0.042111 0.430664 114 88 95 
0.102539 -0.039842 0.436523 111 89 93 
0.096680 -0.042748 0.436523 111 87 90 
0.101685 -0.038086 0.442383 108 89 91 
0.096680 -0.041449 0.442383 107 87 88 
0.102539 -0.038086 0.440520 109 89 92 
0.099131 -0.038086 0.448242 105 89 88 
0.096680 -0.039793 0.448242 105 88 86 
0.096680 -0.038086 0.452427 103 89 84 
0.102539 -0.037335 0.442383 107 89 92 
0.102539 -0.035048 0.448242 105 90 90 
0.102539 -0.033207 0.454102 104 92 89 
0.096680 -0.036576 0.454102 102 89 84 
0.102539 -0.032227 0.455192 103 92 89 
0.108398 -0.084961 0.408756 145 89 104 
0.108398 -0.079102 0.407925 142 90 106 
0.108398 -0.073242 0.407780 135 87 104 
0.108398 -0.067383 0.408365 130 84 103 
0.108398 -0.061523 0.409515 129 84 104 
0.108398 -0.055664 0.411631 128 87 107 
0.108398 -0.053393 0.413086 127 88 107 
0.108398 -0.049805 0.415453 126 89 107 
0.108398 -0.046973 0.418945 123 89 105 
0.103415 -0.043945 0.424805 117 88 98 
0.108398 -0.043945 0.422578 121 90 104 
0.108398 -0.043076 0.424805 119 90 103 
0.108398 -0.040623 0.430664 115 90 100 
0.108176 -0.038086 0.436523 112 91 98 
0.108398 -0.038086 0.436349 112 91 98 
0.108398 -0.038023 0.436523 112 91 98 
0.108398 -0.035836 0.442383 110 92 96 
0.108398 -0.032811 0.448242 107 92 94 
0.104127 -0.032227 0.454102 104 92 90 
0.108398 -0.032227 0.449831 107 92 93 
0.108398 -0.028539 0.454102 104 94 92 
0.114258 -0.084961 0.408465 147 95 110 
0.114258 -0.079102 0.407620 144 94 113 
0.114258 -0.073242 0.407718 140 93 115 
0.114258 -0.067383 0.408165 135 94 121 
0.114258 -0.061523 0.409651 133 96 124 
0.114258 -0.055664 0.412001 132 95 120 
0.114258 -0.054072 0.413086 131 94 118 
0.114258 -0.049805 0.415969 128 93 114 
0.114258 -0.047492 0.418945 126 92 112 
0.114258 -0.043945 0.423570 122 92 108 
0.114258 -0.043401 0.424805 121 91 107 
0.114258 -0.040578 0.430664 116 91 103 
0.114258 -0.038086 0.435076 113 90 99 
0.114258 -0.037480 0.436523 112 91 99 
0.114258 -0.035070 0.442383 111 92 98 
0.113925 -0.032227 0.448242 109 94 96 
0.114258 -0.032227 0.448175 109 94 96 
0.114258 -0.032152 0.448242 109 94 96 
0.120117 -0.084961 0.409190 148 98 116 
0.120117 -0.079102 0.408239 148 101 124 
0.120117 -0.073242 0.408298 145 104 132 
0.120117 -0.067383 0.408976 140 103 135 
0.120117 -0.061523 0.410700 138 101 131 
0.120117 -0.056651 0.413086 135 97 124 
0.118328 -0.055664 0.413086 134 96 122 
0.120117 -0.055664 0.413583 135 96 123 
0.120117 -0.049805 0.418271 128 93 115 
0.120117 -0.049352 0.418945 128 93 114 
0.120117 -0.045286 0.424805 121 91 108 
0.116573 -0.043945 0.424805 121 91 107 
0.120117 -0.043945 0.426632 119 90 107 
0.120117 -0.042037 0.430664 117 90 104 
0.120117 -0.038643 0.436523 113 90 100 
0.117813 -0.038086 0.436523 113 90 99 
0.120117 -0.038086 0.437478 113 90 99 
0.120117 -0.035672 0.442383 111 92 97 
0.120117 -0.032259 0.448242 108 93 95 
0.117486 -0.032227 0.448242 109 93 95 
0.120117 -0.032227 0.448300 108 93 94 
0.125977 -0.089922 0.413086 146 101 116 
0.125977 -0.084961 0.411001 148 103 122 
0.125977 -0.079102 0.410184 147 106 131 
0.125977 -0.073242 0.410259 144 106 137 
0.125977 -0.067383 0.411373 142 104 135 
0.125977 -0.062322 0.413086 139 100 129 
0.125361 -0.061523 0.413086 139 100 129 
0.125977 -0.061523 0.413372 139 100 128 
0.125977 -0.055664 0.416805 134 97 122 
0.125977 -0.053502 0.418945 131 96 118 
0.121043 -0.049805 0.418945 128 93 115 
0.125977 -0.049805 0.422450 127 93 113 
0.125977 -0.048406 0.424805 124 92 110 
0.125977 -0.044286 0.430664 117 89 103 
0.125341 -0.043945 0.430664 117 89 103 
0.125977 -0.043945 0.431094 116 89 102 
0.125977 -0.041182 0.436523 114 91 100 
0.125977 -0.038086 0.441942 112 92 98 
0.125977 -0.037782 0.442383 112 92 98 
0.125977 -0.033820 0.448242 109 93 95 
0.125977 -0.032227 0.450608 107 93 93 
0.129387 -0.084961 0.413086 144 105 122 
0.131836 -0.084961 0.414557 142 107 123 
0.131032 -0.079102 0.413086 144 108 131 
0.131836 -0.079102 0.413553 144 108 131 
0.130920 -0.073242 0.413086 143 107 135 
0.131836 -0.073242 0.413603 143 107 135 
0.128705 -0.067383 0.413086 141 104 133 
0.131836 -0.067383 0.415151 141 103 130 
0.131836 -0.061523 0.417648 136 99 124 
0.131836 -0.059897 0.418945 134 99 122 
0.128210 -0.055664 0.418945 132 97 120 
0.131836 -0.055664 0.422079 130 98 117 
0.131836 -0.053274 0.424805 126 96 113 
0.128081 -0.049805 0.424805 123 93 110 
0.131836 -0.049805 0.428861 119 92 106 
0.131836 -0.048823 0.430664 118 93 105 
0.131836 -0.044225 0.436523 115 94 101 
0.131478 -0.043945 0.436523 115 94 100 
0.131836 -0.043945 0.436862 115 94 100 
0.131836 -0.040940 0.442383 113 95 99 
0.126462 -0.038086 0.442383 112 92 98 
0.131836 -0.038086 0.447115 111 95 96 
0.131836 -0.036790 0.448242 110 95 96 
0.131836 -0.032227 0.452791 108 96 93 
0.135937 -0.084961 0.418945 132 106 118 
0.137695 -0.089080 0.424805 124 104 112 
0.137695 -0.084961 0.420940 129 105 116 
0.137350 -0.079102 0.418945 134 108 125 
0.137695 -0.079102 0.419276 133 108 124 
0.137204 -0.073242 0.418945 134 106 127 
0.137695 -0.073242 0.419453 134 106 126 
0.135587 -0.067383 0.418945 136 103 126 
0.137695 -0.067383 0.421067 134 103 124 
0.132896 -0.061523 0.418945 135 99 123 
0.137695 -0.061523 0.424640 129 99 117 
0.137695 -0.061352 0.424805 128 98 117 
0.133839 -0.055664 0.424805 127 97 114 
0.137695 -0.055664 0.430181 121 95 109 
0.137695 -0.055318 0.430664 120 95 109 
0.132949 -0.049805 0.430664 118 93 106 
0.137695 -0.049956 0.436523 117 96 103 
0.137571 -0.049805 0.436523 116 96 103 
0.137695 -0.049805 0.436686 116 96 103 
0.137695 -0.046451 0.442383 115 98 101 
0.135298 -0.043945 0.442383 115 97 100 
0.137695 -0.043945 0.445218 114 98 99 
0.137695 -0.040962 0.448242 113 98 98 
0.133248 -0.038086 0.448242 111 96 96 
0.137695 -0.038086 0.452028 110 98 96 
0.139163 -0.084961 0.424805 125 104 114 
0.141582 -0.084961 0.430664 119 104 112 
0.143555 -0.085579 0.436523 113 103 109 
0.143555 -0.084961 0.434388 113 103 109 
0.143555 -0.087088 0.442383 111 102 107 
0.143555 -0.086871 0.448242 110 104 108 
0.143555 -0.085802 0.454102 114 107 110 
0.142797 -0.084961 0.459961 123 111 114 
0.143555 -0.084961 0.457686 119 110 112 
0.141271 -0.079102 0.424805 124 107 119 
0.143555 -0.081164 0.430664 117 105 113 
0.143555 -0.079102 0.428180 118 106 115 
0.143491 -0.079102 0.459961 127 112 114 
0.143555 -0.079102 0.459726 127 112 114 
0.143555 -0.079102 0.460188 127 112 114 
0.141371 -0.073242 0.424805 125 105 120 
0.143555 -0.073242 0.427961 121 105 117 
0.143555 -0.078766 0.459961 127 112 114 
0.139916 -0.067383 0.424805 128 102 120 
0.143555 -0.067383 0.430351 120 101 114 
0.137784 -0.061523 0.424805 128 99 117 
0.143555 -0.066929 0.430664 120 101 114 
0.141166 -0.061523 0.430664 121 98 111 
0.143555 -0.061523 0.434148 117 98 107 
0.137911 -0.055664 0.430664 120 95 109 
0.143555 -0.059138 0.436523 116 98 106 
0.141380 -0.055664 0.436523 117 97 105 
0.143555 -0.055664 0.439162 115 98 103 
0.143555 -0.053183 0.442383 116 99 103 
0.140540 -0.049805 0.442383 116 99 102 
0.143555 -0.049805 0.446465 115 101 101 
0.143555 -0.047776 0.448242 114 101 100 
0.140494 -0.043945 0.448242 113 100 99 
0.143555 -0.043945 0.452205 112 101 98 
0.143555 -0.039758 0.454102 111 102 97 
0.141894 -0.038086 0.454102 111 101 96 
0.144116 -0.084961 0.436523 113 103 109 
0.145442 -0.084961 0.442383 112 103 108 
0.145250 -0.084961 0.448242 110 104 108 
0.144386 -0.084961 0.454102 114 107 110 
0.144113 -0.079102 0.430664 117 105 114 
0.145501 -0.079102 0.436523 115 105 113 
0.146743 -0.079102 0.442383 114 104 111 
0.146329 -0.079102 0.448242 114 106 110 
0.145071 -0.079102 0.454102 118 109 111 
0.144206 -0.073242 0.430664 120 105 116 
0.145821 -0.073242 0.436523 117 104 114 
0.147960 -0.073242 0.442383 114 103 111 
0.148138 -0.073242 0.448242 112 105 108 
0.147095 -0.073242 0.454102 116 107 109 
0.146157 -0.073242 0.459961 121 110 111 
0.143646 -0.067383 0.430664 120 101 114 
0.145550 -0.067383 0.436523 117 101 112 
0.147955 -0.067383 0.442383 114 101 109 
0.149414 -0.068996 0.448242 111 102 106 
0.149414 -0.067383 0.446821 111 101 106 
0.147472 -0.067383 0.454102 116 105 107 
0.149414 -0.067383 0.450100 112 102 106 
0.146781 -0.067383 0.459961 119 107 107 
0.144496 -0.061523 0.436523 117 99 107 
0.147585 -0.061523 0.442383 114 100 106 
0.149414 -0.061523 0.445074 112 100 104 
0.149414 -0.062254 0.454102 115 104 104 
0.145078 -0.055664 0.442383 115 100 104 
0.149414 -0.055829 0.448242 113 103 102 
0.149344 -0.055664 0.448242 113 103 102 
0.149414 -0.055664 0.448380 113 103 102 
0.144953 -0.049805 0.448242 115 102 102 
0.150104 -0.067383 0.448242 111 101 106 
0.151322 -0.061523 0.448242 111 101 104 
0.149964 -0.061523 0.454102 114 104 104 
0.073242 -0.071723 0.471680 104 88 91 
0.073707 -0.073242 0.471680 107 88 92 
0.073242 -0.085645 0.448242 119 99 108 
0.072746 -0.084961 0.448242 119 99 108 
0.073242 -0.084961 0.443796 123 100 111 
0.073242 -0.086150 0.454102 116 97 104 
0.072369 -0.084961 0.454102 115 97 105 
0.073242 -0.086546 0.459961 113 97 106 
0.072298 -0.084961 0.459961 113 97 107 
0.073242 -0.084961 0.460769 112 97 107 
0.073242 -0.084121 0.442383 123 100 111 
0.072431 -0.079102 0.442383 119 98 108 
0.073242 -0.079102 0.438420 122 99 110 
0.071407 -0.079102 0.448242 116 96 107 
0.070843 -0.079102 0.454102 113 95 104 
0.070565 -0.079102 0.459961 111 94 103 
0.073242 -0.079102 0.463278 111 92 102 
0.073242 -0.077252 0.436523 122 99 110 
0.072409 -0.073242 0.436523 120 99 107 
0.073242 -0.073242 0.432914 124 100 110 
0.072213 -0.073242 0.442383 118 97 105 
0.071304 -0.073242 0.448242 115 95 103 
0.070292 -0.073242 0.454102 111 94 99 
0.069543 -0.073242 0.459961 108 93 96 
0.073242 -0.076353 0.465820 111 90 96 
0.069153 -0.073242 0.465820 106 92 93 
0.073242 -0.073242 0.470737 106 88 93 
0.073242 -0.069625 0.436523 119 98 104 
0.072415 -0.067383 0.442383 115 96 99 
0.073242 -0.067383 0.438846 117 96 101 
0.071491 -0.067383 0.448242 112 94 97 
0.070636 -0.067383 0.454102 109 93 95 
0.070383 -0.067383 0.459961 107 92 92 
0.070340 -0.067383 0.465820 104 93 89 
0.073242 -0.065733 0.442383 114 96 99 
0.073242 -0.063458 0.448242 111 94 96 
0.073242 -0.061786 0.454102 109 92 91 
0.072783 -0.061523 0.459961 106 92 89 
0.073242 -0.061523 0.455993 108 92 90 
0.072933 -0.061523 0.465820 105 94 86 
0.073242 -0.060847 0.459961 106 92 89 
0.073242 -0.060908 0.465820 104 94 86 
0.079102 -0.089044 0.430664 133 99 114 
0.077718 -0.084961 0.430664 131 101 121 
0.079102 -0.084961 0.426251 130 100 122 
0.078032 -0.090820 0.436523 129 96 108 
0.075972 -0.084961 0.436523 127 101 121 
0.079102 -0.090820 0.432182 133 97 110 
0.077250 -0.090820 0.442383 125 97 110 
0.073506 -0.084961 0.442383 124 100 112 
0.076207 -0.090820 0.448242 123 97 108 
0.075774 -0.090820 0.454102 119 96 106 
0.075419 -0.090820 0.459961 116 96 105 
0.079102 -0.090820 0.462058 117 93 111 
0.079102 -0.084961 0.463079 107 84 104 
0.079102 -0.082251 0.424805 125 98 122 
0.078230 -0.079102 0.424805 122 97 122 
0.079102 -0.079102 0.423016 119 95 123 
0.076718 -0.079102 0.430664 122 96 119 
0.074149 -0.079102 0.436523 122 98 112 
0.079102 -0.082234 0.465820 119 86 95 
0.074804 -0.079102 0.465820 118 92 98 
0.079102 -0.082485 0.471680 116 88 94 
0.074729 -0.079102 0.471680 115 93 93 
0.077997 -0.073242 0.424805 115 91 116 
0.079102 -0.073242 0.422490 112 89 117 
0.074827 -0.073242 0.430664 122 97 112 
0.078819 -0.067383 0.424805 111 83 104 
0.079102 -0.067383 0.423876 110 82 104 
0.076864 -0.067383 0.430664 113 88 103 
0.074394 -0.067383 0.436523 116 94 101 
0.079102 -0.065930 0.424805 110 83 101 
0.078368 -0.061523 0.430664 113 86 96 
0.079102 -0.061523 0.427604 111 84 95 
0.077190 -0.061523 0.436523 113 88 96 
0.076076 -0.061523 0.442383 110 89 95 
0.074730 -0.061523 0.448242 109 91 94 
0.073420 -0.061523 0.454102 109 92 91 
0.079102 -0.060742 0.430664 112 85 95 
0.079102 -0.059368 0.436523 110 85 93 
0.079102 -0.057405 0.442383 107 85 90 
0.078219 -0.055664 0.448242 105 86 88 
0.079102 -0.055664 0.445890 105 85 88 
0.076813 -0.055664 0.454102 105 88 88 
0.077034 -0.055664 0.459961 100 88 87 
0.077709 -0.055664 0.465820 100 91 86 
0.079102 -0.054731 0.448242 105 86 88 
0.079102 -0.053238 0.454102 104 88 87 
0.079102 -0.052821 0.459961 101 89 86 
0.083908 -0.090820 0.424805 132 93 113 
0.080903 -0.084961 0.424805 126 96 121 
0.084961 -0.090820 0.422126 130 93 114 
0.084961 -0.084961 0.420972 119 89 121 
0.080244 -0.090820 0.430664 134 96 111 
0.084961 -0.079102 0.419325 116 83 114 
0.084961 -0.076883 0.418945 116 81 110 
0.084128 -0.073242 0.418945 116 79 105 
0.084961 -0.073242 0.418285 117 77 102 
0.084508 -0.067383 0.418945 116 76 95 
0.084961 -0.067383 0.418515 117 75 94 
0.084961 -0.065583 0.418945 116 76 93 
0.081224 -0.061523 0.424805 112 81 93 
0.084961 -0.061523 0.419872 115 77 91 
0.084738 -0.055664 0.424805 114 83 90 
0.084961 -0.055664 0.423865 114 83 90 
0.083728 -0.055664 0.430664 112 83 90 
0.082248 -0.055664 0.436523 109 82 89 
0.080585 -0.055664 0.442383 107 84 88 
0.084961 -0.055458 0.424805 114 83 90 
0.084961 -0.054385 0.430664 111 82 89 
0.084961 -0.053006 0.436523 109 82 87 
0.084961 -0.051105 0.442383 105 82 86 
0.084025 -0.049805 0.448242 103 84 84 
0.084961 -0.049805 0.445638 102 83 84 
0.082264 -0.049805 0.454102 103 87 84 
0.082195 -0.049805 0.459961 102 90 83 
0.084961 -0.048671 0.448242 102 83 84 
0.084961 -0.046583 0.454102 102 86 84 
0.084961 -0.045984 0.459961 101 88 83 
0.090820 -0.090661 0.418945 126 79 99 
0.088109 -0.084961 0.418945 122 83 111 
0.090820 -0.084961 0.417114 125 77 101 
0.090820 -0.090820 0.418996 126 79 99 
0.085527 -0.079102 0.418945 117 83 113 
0.090820 -0.079102 0.415258 124 77 98 
0.090820 -0.073242 0.414161 125 77 96 
0.090820 -0.067383 0.414145 124 76 92 
0.086259 -0.061523 0.418945 116 76 91 
0.090820 -0.061523 0.415347 119 76 90 
0.089902 -0.055664 0.418945 115 79 89 
0.090820 -0.055664 0.417930 116 79 90 
0.090820 -0.055059 0.418945 115 79 89 
0.090820 -0.051704 0.424805 113 81 88 
0.089832 -0.049805 0.430664 112 83 88 
0.090820 -0.049805 0.427402 113 83 88 
0.088503 -0.049805 0.436523 110 84 88 
0.086483 -0.049805 0.442383 105 83 85 
0.090820 -0.048850 0.430664 112 84 88 
0.090820 -0.047476 0.436523 110 84 87 
0.090820 -0.045351 0.442383 106 84 86 
0.089736 -0.043945 0.448242 102 84 84 
0.090820 -0.043945 0.445565 103 84 84 
0.088620 -0.043945 0.454102 103 87 84 
0.090820 -0.042750 0.448242 102 84 84 
0.090820 -0.041322 0.454102 102 88 83 
0.090904 -0.090820 0.418945 126 79 99 
0.094387 -0.079102 0.413086 129 77 95 
0.092864 -0.073242 0.413086 127 78 95 
0.092891 -0.067383 0.413086 125 77 93 
0.094925 -0.061523 0.413086 122 78 91 
0.093263 -0.049805 0.424805 113 82 89 
0.095214 -0.043945 0.436523 111 87 89 
0.092724 -0.043945 0.442383 106 85 86 
0.095331 -0.038086 0.454102 102 89 84 
0.079102 -0.092056 0.436523 130 96 108 
0.079102 -0.093049 0.442383 126 97 109 
0.079102 -0.094224 0.448242 124 97 106 
0.079102 -0.094560 0.454102 119 97 104 
0.079102 -0.094524 0.459961 119 97 105 
0.084961 -0.096917 0.436523 133 90 100 
0.084679 -0.096680 0.436523 133 90 100 
0.084961 -0.096680 0.431392 140 92 102 
0.084961 -0.098159 0.442383 129 90 99 
0.083310 -0.096680 0.442383 128 91 99 
0.084961 -0.098959 0.448242 125 90 97 
0.082524 -0.096680 0.448242 124 91 98 
0.084961 -0.099246 0.454102 122 89 97 
0.082119 -0.096680 0.454102 120 91 97 
0.084961 -0.096680 0.458710 118 86 95 
0.084961 -0.092391 0.424805 132 92 110 
0.084961 -0.096573 0.430664 140 93 102 
0.084961 -0.096163 0.459961 117 85 95 
0.090820 -0.103154 0.448242 128 87 94 
0.089891 -0.102539 0.448242 127 87 94 
0.090820 -0.102539 0.445165 129 87 95 
0.090820 -0.102708 0.454102 122 85 92 
0.090542 -0.102539 0.454102 122 85 92 
0.090820 -0.102539 0.454412 122 84 92 
0.090820 -0.097311 0.424805 135 85 98 
0.089285 -0.096680 0.424805 136 87 99 
0.090820 -0.096680 0.421973 136 85 99 
0.090820 -0.098608 0.430664 134 86 98 
0.085074 -0.096680 0.430664 141 92 102 
0.090820 -0.100187 0.436523 132 87 96 
0.090820 -0.101867 0.442383 130 87 95 
0.090820 -0.096680 0.459639 124 81 95 
0.090820 -0.096440 0.459961 123 81 95 
0.094918 -0.102539 0.436523 134 86 96 
0.092517 -0.102539 0.442383 131 87 95 
0.095433 -0.096680 0.418945 134 80 94 
0.091062 -0.096680 0.459961 123 81 95 
0.093682 -0.096680 0.465820 99 68 91 
