ply
format ascii 1.0
comment Created by Open3D
obj_info Generated by CloudCompare!
element vertex 803
property float x
property float y
property float z
property uchar red
property uchar green
property uchar blue
end_header
0.102539 -0.167951 1.016602 167 135 106 
0.101489 -0.166992 1.016602 164 130 102 
0.102539 -0.166992 1.012376 168 135 105 
0.102539 -0.169297 1.022461 166 137 109 
0.100450 -0.166992 1.022461 160 127 102 
0.102539 -0.170343 1.028320 164 137 112 
0.099933 -0.166992 1.028320 158 125 102 
0.102539 -0.171310 1.034180 164 139 115 
0.099646 -0.166992 1.034180 156 126 105 
0.102539 -0.162604 1.004883 162 124 92 
0.101498 -0.161133 1.004883 158 117 86 
0.102539 -0.161133 1.003221 160 119 87 
0.102539 -0.166013 1.010742 167 133 103 
0.099491 -0.161133 1.010742 153 114 87 
0.097354 -0.161133 1.016602 149 110 87 
0.096960 -0.161133 1.022461 147 110 90 
0.096680 -0.161647 1.028320 146 112 93 
0.096680 -0.161133 1.024769 146 110 91 
0.096812 -0.161133 1.034180 146 114 97 
0.096680 -0.161133 1.032827 146 113 96 
0.098821 -0.155273 1.004883 142 100 76 
0.102539 -0.155273 0.999294 147 103 76 
0.096680 -0.156317 1.010742 141 100 79 
0.096680 -0.155273 1.009369 139 98 77 
0.096680 -0.159524 1.016602 145 106 85 
0.096680 -0.160546 1.022461 146 109 89 
0.096680 -0.160773 1.034180 145 113 96 
0.102539 -0.154657 0.999023 146 102 76 
0.100868 -0.149414 0.999023 133 89 72 
0.102539 -0.149414 0.996657 135 91 72 
0.097314 -0.149414 1.004883 132 87 71 
0.096680 -0.149414 1.006352 131 87 71 
0.100718 -0.143555 0.999023 127 82 72 
0.102539 -0.143555 0.996465 128 84 75 
0.097133 -0.143555 1.004883 125 79 68 
0.096680 -0.143555 1.005774 125 78 67 
0.101804 -0.137695 0.999023 120 74 68 
0.102539 -0.137695 0.998079 120 74 69 
0.098178 -0.137695 1.004883 120 72 64 
0.096680 -0.137695 1.008404 120 72 62 
0.102539 -0.136210 0.999023 119 72 67 
0.101090 -0.131836 1.004883 116 67 60 
0.102539 -0.131836 1.002317 116 67 61 
0.098338 -0.131836 1.010742 116 68 59 
0.096680 -0.135654 1.010742 119 71 61 
0.096680 -0.131836 1.015893 117 69 60 
0.102539 -0.129843 1.004883 114 66 59 
0.102129 -0.125977 1.010742 112 64 56 
0.102539 -0.125977 1.009978 112 64 56 
0.099009 -0.125977 1.016602 112 67 59 
0.096680 -0.131326 1.016602 117 69 60 
0.096680 -0.125977 1.022171 112 71 63 
0.102539 -0.125397 1.010742 112 64 56 
0.102539 -0.120412 1.016602 106 64 56 
0.098993 -0.120117 1.022461 104 69 60 
0.096680 -0.125665 1.022461 111 71 63 
0.102539 -0.120117 1.016915 106 64 56 
0.096680 -0.120117 1.025936 103 75 65 
0.100958 -0.114258 1.022461 92 64 54 
0.102539 -0.114258 1.020723 92 62 52 
0.096680 -0.114258 1.026809 96 72 61 
0.102539 -0.108398 1.020375 86 61 47 
0.108398 -0.173912 1.022461 174 159 131 
0.106134 -0.172852 1.022461 172 154 125 
0.108398 -0.172852 1.016676 175 162 132 
0.108398 -0.174943 1.028320 172 158 132 
0.104787 -0.172852 1.028320 169 148 122 
0.108398 -0.175389 1.034180 170 157 133 
0.104293 -0.172852 1.034180 167 146 122 
0.108398 -0.167274 1.004883 175 152 121 
0.107822 -0.166992 1.004883 174 150 118 
0.108398 -0.166992 1.004322 175 152 120 
0.108398 -0.169735 1.010742 175 155 125 
0.103324 -0.166992 1.010742 169 138 107 
0.108398 -0.172815 1.016602 175 162 132 
0.108398 -0.162100 0.999023 168 134 100 
0.107262 -0.161133 0.999023 166 128 94 
0.108398 -0.161133 0.997934 167 130 96 
0.108398 -0.156071 0.993164 157 113 81 
0.107523 -0.155273 0.993164 154 109 78 
0.108398 -0.155273 0.992398 155 110 79 
0.102750 -0.155273 0.999023 147 104 76 
0.105691 -0.149414 0.993164 137 92 72 
0.108398 -0.149414 0.990424 140 94 72 
0.105520 -0.143555 0.993164 129 85 76 
0.108398 -0.143555 0.990115 130 85 75 
0.106688 -0.137695 0.993164 121 76 72 
0.108398 -0.137695 0.991444 121 76 73 
0.108398 -0.134203 0.993164 117 71 68 
0.105030 -0.131836 0.999023 115 67 62 
0.108398 -0.131836 0.994731 115 68 64 
0.108398 -0.126894 0.999023 111 63 57 
0.105478 -0.125977 1.004883 112 63 56 
0.108398 -0.125977 0.999862 111 63 56 
0.108398 -0.122486 1.004883 109 62 54 
0.106594 -0.120117 1.010742 107 62 54 
0.108398 -0.120117 1.007963 108 61 54 
0.102761 -0.120117 1.016602 106 64 56 
0.108398 -0.117727 1.010742 104 61 54 
0.106296 -0.114258 1.016602 95 60 53 
0.108398 -0.114258 1.014254 97 60 53 
0.107743 -0.108398 1.016602 83 56 45 
0.108398 -0.108398 1.016134 83 56 45 
0.114258 -0.178778 1.034180 168 164 139 
0.114039 -0.178711 1.034180 168 164 139 
0.114258 -0.178711 1.033826 168 164 139 
0.114258 -0.173992 1.016602 168 158 131 
0.108466 -0.172852 1.016602 175 162 132 
0.114258 -0.172852 1.011063 166 157 130 
0.114258 -0.175387 1.022461 168 159 132 
0.114258 -0.177027 1.028320 168 161 136 
0.114258 -0.168777 1.004883 167 150 119 
0.114258 -0.166992 1.001514 165 144 113 
0.114258 -0.172659 1.010742 166 157 129 
0.114258 -0.164827 0.999023 163 137 105 
0.114258 -0.161133 0.994141 167 131 96 
0.114258 -0.160095 0.993164 165 128 93 
0.114258 -0.155273 0.989202 160 115 81 
0.114258 -0.160004 1.034180 145 124 113 
0.111549 -0.155273 1.034180 140 116 107 
0.114258 -0.155273 1.032380 141 117 108 
0.114258 -0.150400 0.987305 148 101 75 
0.113502 -0.149414 0.987305 145 97 73 
0.114258 -0.149414 0.986887 146 98 73 
0.111513 -0.149414 1.034180 138 112 106 
0.114258 -0.149414 1.032281 139 114 108 
0.112474 -0.143555 0.987305 131 83 71 
0.114258 -0.143555 0.986146 131 83 69 
0.114258 -0.145064 1.034180 137 111 108 
0.112997 -0.137695 0.987305 120 72 67 
0.114258 -0.137695 0.986037 121 71 64 
0.114258 -0.133986 0.987305 116 67 62 
0.109761 -0.131836 0.993164 115 68 64 
0.114258 -0.131836 0.988161 114 64 60 
0.113586 -0.125977 0.993164 110 62 56 
0.114258 -0.125977 0.992295 110 62 56 
0.109008 -0.125977 0.999023 111 63 56 
0.114258 -0.125265 0.993164 110 61 55 
0.114258 -0.120661 0.999023 108 60 53 
0.110655 -0.120117 1.004883 108 60 53 
0.114258 -0.120117 0.999724 108 60 52 
0.114258 -0.116245 1.004883 104 60 53 
0.111470 -0.114258 1.010742 99 60 54 
0.114258 -0.114258 1.007274 101 59 54 
0.114258 -0.109340 1.010742 87 56 49 
0.114258 -0.108398 1.011293 85 56 48 
0.114258 -0.104858 1.010742 92 64 48 
0.113713 -0.102539 1.010742 96 69 48 
0.114258 -0.102539 1.010427 96 69 49 
0.120117 -0.178796 1.028320 163 158 133 
0.119619 -0.178711 1.028320 164 158 133 
0.120117 -0.178711 1.027928 163 157 132 
0.120117 -0.179594 1.034180 163 156 133 
0.120117 -0.173093 1.010742 161 148 119 
0.115356 -0.172852 1.010742 165 155 128 
0.120117 -0.172852 1.009789 160 147 117 
0.120117 -0.174607 1.016602 164 152 124 
0.120117 -0.176558 1.022461 164 155 129 
0.120117 -0.169653 1.004883 159 139 108 
0.120117 -0.166992 0.999057 157 131 100 
0.120117 -0.170641 1.034180 161 148 132 
0.115228 -0.166992 1.034180 154 133 120 
0.120117 -0.166992 1.032192 156 139 123 
0.120117 -0.162251 0.993164 164 128 94 
0.116198 -0.161133 0.993164 166 130 95 
0.120117 -0.161133 0.991724 165 127 94 
0.120117 -0.166968 0.999023 157 131 99 
0.114734 -0.161133 1.034180 146 125 113 
0.120117 -0.161133 1.030061 150 127 113 
0.120117 -0.155380 0.987305 162 115 83 
0.119830 -0.155273 0.987305 162 115 82 
0.120117 -0.155273 0.987211 162 115 82 
0.120117 -0.155273 1.029156 145 119 108 
0.120117 -0.149414 0.983898 150 97 71 
0.120117 -0.149414 1.030296 139 111 104 
0.120117 -0.144799 0.981445 139 81 62 
0.119136 -0.143555 0.981445 135 78 61 
0.120117 -0.143555 0.980776 136 77 60 
0.115459 -0.143555 1.034180 136 111 108 
0.120117 -0.143555 1.031773 136 109 106 
0.119324 -0.137695 0.981445 123 65 55 
0.120117 -0.137695 0.980859 124 64 54 
0.120117 -0.140369 1.034180 135 110 107 
0.120117 -0.135898 0.981445 122 63 54 
0.115014 -0.131836 0.987305 114 64 59 
0.120117 -0.131836 0.982891 117 62 54 
0.118486 -0.125977 0.987305 111 60 53 
0.120117 -0.125977 0.985796 112 59 52 
0.120117 -0.124378 0.987305 111 58 51 
0.118954 -0.120117 0.993164 109 58 51 
0.120117 -0.120117 0.991800 109 58 51 
0.114781 -0.120117 0.999023 108 60 52 
0.120117 -0.119201 0.993164 108 58 51 
0.120117 -0.115656 0.999023 105 59 52 
0.116494 -0.114258 1.004883 102 59 53 
0.120117 -0.114258 1.001034 104 59 52 
0.120117 -0.110149 1.004883 94 58 51 
0.114908 -0.108398 1.010742 85 56 48 
0.120117 -0.108398 1.006270 90 57 50 
0.120117 -0.102539 1.006723 101 73 53 
0.120117 -0.099546 1.004883 110 80 55 
0.125977 -0.179067 1.028320 165 156 129 
0.125977 -0.178711 1.026919 165 156 128 
0.125977 -0.180162 1.034180 166 157 132 
0.125977 -0.173081 1.010742 165 148 117 
0.125977 -0.172852 1.009742 166 148 117 
0.125977 -0.174694 1.016602 166 150 121 
0.125977 -0.176814 1.022461 166 154 125 
0.125977 -0.167501 0.999023 168 139 107 
0.120240 -0.166992 0.999023 158 131 100 
0.125977 -0.166992 0.997791 168 139 107 
0.125977 -0.170323 1.004883 166 143 110 
0.125977 -0.172110 1.034180 161 154 139 
0.125977 -0.166992 1.030584 160 144 129 
0.125977 -0.163240 0.993164 171 135 103 
0.125977 -0.161133 0.990351 172 131 101 
0.125977 -0.163474 1.028320 156 137 122 
0.123093 -0.161133 1.028320 150 128 113 
0.125977 -0.161133 1.026738 152 129 114 
0.125977 -0.157502 0.987305 168 120 92 
0.125977 -0.155273 0.985044 166 114 87 
0.122175 -0.155273 1.028320 145 119 108 
0.125977 -0.155273 1.026702 145 119 106 
0.125977 -0.149414 0.981881 154 97 73 
0.125977 -0.150422 1.028320 141 112 103 
0.125977 -0.149414 1.028674 141 111 103 
0.125977 -0.148592 0.981445 153 94 72 
0.125977 -0.143555 0.979073 142 78 61 
0.125977 -0.143555 1.031447 138 110 106 
0.125977 -0.137695 0.978721 130 67 55 
0.125977 -0.139836 1.034180 137 114 110 
0.122913 -0.131836 0.981445 119 62 54 
0.125977 -0.131836 0.980063 122 63 54 
0.125977 -0.129183 0.981445 119 62 53 
0.125977 -0.125977 0.983148 116 61 53 
0.125977 -0.120913 0.987305 113 60 52 
0.125977 -0.120117 0.988022 112 59 52 
0.125977 -0.115961 0.993164 108 59 51 
0.122070 -0.114258 0.999023 105 59 52 
0.125977 -0.114258 0.995473 107 59 51 
0.125977 -0.110665 0.999023 101 60 50 
0.121772 -0.108398 1.004883 92 59 50 
0.125977 -0.108398 1.001243 98 61 50 
0.122931 -0.102539 1.004883 106 77 56 
0.125977 -0.102539 1.002872 111 80 58 
0.131836 -0.178843 1.028320 169 157 131 
0.131836 -0.178711 1.027842 169 157 131 
0.131836 -0.179993 1.034180 168 158 133 
0.131836 -0.173164 1.010742 170 151 123 
0.131836 -0.172852 1.009569 171 151 123 
0.131836 -0.174698 1.016602 170 152 125 
0.131836 -0.176595 1.022461 169 154 127 
0.131836 -0.167921 0.999023 173 144 118 
0.131836 -0.166992 0.996740 173 143 118 
0.131836 -0.170376 1.004883 172 147 120 
0.131836 -0.172635 1.034180 157 153 140 
0.131836 -0.166992 1.029111 160 146 131 
0.131836 -0.163993 0.993164 173 137 113 
0.131836 -0.161133 0.988661 172 128 107 
0.131836 -0.165626 1.028320 159 144 129 
0.131836 -0.161133 1.026148 155 131 119 
0.131836 -0.159744 0.987305 171 124 103 
0.131836 -0.155273 0.983814 167 112 92 
0.131836 -0.155273 1.026685 148 123 113 
0.131836 -0.150113 0.981445 160 99 81 
0.129058 -0.149414 0.981445 157 97 77 
0.131836 -0.149414 0.981068 159 97 80 
0.126943 -0.149414 1.028320 141 112 103 
0.131836 -0.149414 1.026568 144 112 105 
0.131836 -0.143555 0.978204 148 80 65 
0.131836 -0.146805 1.028320 142 111 104 
0.131836 -0.143555 1.030987 141 113 108 
0.131836 -0.137695 0.978159 137 71 59 
0.131836 -0.137761 1.034180 141 123 121 
0.131836 -0.131836 0.979287 128 68 59 
0.131836 -0.128273 0.981445 124 67 58 
0.131836 -0.125977 0.982873 121 66 58 
0.131836 -0.121033 0.987305 117 66 58 
0.131836 -0.120117 0.988163 116 65 58 
0.131836 -0.114982 0.993164 113 67 58 
0.131836 -0.114258 0.993869 112 67 58 
0.129835 -0.108398 0.999023 107 69 55 
0.131836 -0.108398 0.998131 112 75 59 
0.131836 -0.105282 0.999023 118 81 61 
0.131836 -0.102539 0.999846 123 88 64 
0.131836 -0.100656 0.999023 125 89 64 
0.135444 -0.178711 1.028320 172 159 137 
0.137695 -0.179928 1.034180 171 158 140 
0.137695 -0.178711 1.028693 174 159 141 
0.136157 -0.172852 1.010742 175 154 134 
0.137695 -0.174541 1.016602 174 154 136 
0.137695 -0.172852 1.011100 177 155 139 
0.137695 -0.176243 1.022461 174 156 138 
0.137695 -0.178573 1.028320 174 159 141 
0.137695 -0.177100 1.034180 167 158 144 
0.132089 -0.172852 1.034180 157 153 140 
0.137695 -0.172852 1.031345 162 153 144 
0.137695 -0.167540 0.999023 177 147 133 
0.137695 -0.166992 0.997749 176 146 132 
0.137695 -0.170109 1.004883 177 151 136 
0.137695 -0.172642 1.010742 177 155 138 
0.137695 -0.166992 1.029049 161 143 133 
0.137695 -0.163578 0.993164 174 136 123 
0.137695 -0.161133 0.989682 173 129 116 
0.137695 -0.165467 1.028320 160 141 132 
0.137695 -0.161133 1.025978 156 132 124 
0.137695 -0.158264 0.987305 170 121 108 
0.137695 -0.155273 0.984380 167 112 99 
0.137695 -0.155273 1.025412 152 119 112 
0.137695 -0.149422 0.981445 163 102 89 
0.137695 -0.149414 0.981442 163 102 89 
0.137695 -0.149414 1.026402 149 112 107 
0.137695 -0.143555 0.979491 154 87 75 
0.137695 -0.146434 1.028320 145 110 106 
0.137695 -0.143555 1.030225 144 112 108 
0.137695 -0.137695 0.979346 143 78 68 
0.131996 -0.137695 1.034180 141 123 121 
0.137695 -0.137695 1.033188 140 118 116 
0.137695 -0.131836 0.981006 134 75 67 
0.137695 -0.136735 1.034180 140 119 117 
0.137695 -0.131145 0.981445 133 75 67 
0.137695 -0.125977 0.985747 125 72 64 
0.137695 -0.124480 0.987305 124 72 65 
0.137695 -0.120117 0.991196 121 76 68 
0.137695 -0.117885 0.993164 122 79 70 
0.137695 -0.114258 0.996005 122 84 73 
0.137695 -0.108587 0.999023 127 94 76 
0.136878 -0.108398 0.999023 125 92 74 
0.137695 -0.108398 0.999135 128 94 76 
0.137695 -0.107291 0.999023 129 95 76 
0.135110 -0.102539 0.999023 128 94 69 
0.137695 -0.102539 0.998548 132 98 74 
0.143555 -0.179423 1.034180 173 158 146 
0.143555 -0.178711 1.031680 175 159 147 
0.143555 -0.173480 1.016602 176 155 144 
0.143555 -0.172852 1.014467 177 155 145 
0.143555 -0.175426 1.022461 174 154 143 
0.143555 -0.177188 1.028320 175 157 146 
0.143555 -0.174931 1.034180 166 155 149 
0.143555 -0.172852 1.033444 163 152 148 
0.139463 -0.166992 0.999023 175 145 132 
0.143555 -0.168326 1.004883 175 146 136 
0.143555 -0.166992 1.001744 175 144 134 
0.143555 -0.171102 1.010742 176 151 140 
0.143555 -0.166992 1.030296 163 140 136 
0.143555 -0.161218 0.993164 170 127 118 
0.143555 -0.161133 0.993035 170 127 118 
0.143555 -0.165068 0.999023 173 138 128 
0.143178 -0.161133 1.028320 156 130 126 
0.143555 -0.161133 1.028538 156 130 126 
0.143555 -0.155470 0.987305 167 114 106 
0.143555 -0.155273 0.987100 167 114 105 
0.143555 -0.160323 1.028320 156 128 124 
0.143555 -0.155273 1.026872 156 118 114 
0.137701 -0.149414 0.981445 163 102 89 
0.143555 -0.149414 0.984651 164 107 98 
0.143555 -0.150993 1.028320 152 116 113 
0.142460 -0.149414 1.028320 151 115 112 
0.143555 -0.149414 1.028799 151 116 113 
0.141343 -0.143555 0.981445 155 91 81 
0.143555 -0.143555 0.982505 155 93 84 
0.143555 -0.143555 1.031368 145 117 114 
0.141079 -0.137695 0.981445 144 84 75 
0.143555 -0.137695 0.982841 145 88 80 
0.143555 -0.140517 1.034180 143 119 118 
0.138937 -0.137695 1.034180 141 120 118 
0.138108 -0.131836 0.981445 134 76 68 
0.143555 -0.131836 0.986681 135 81 74 
0.143555 -0.130866 0.987305 135 81 74 
0.139186 -0.125977 0.987305 126 75 68 
0.143555 -0.125977 0.990862 131 85 76 
0.143555 -0.123038 0.993164 133 91 81 
0.140267 -0.120117 0.993164 128 85 76 
0.143555 -0.120117 0.995707 136 98 87 
0.143555 -0.115055 0.999023 137 105 91 
0.142781 -0.114258 0.999023 135 103 89 
0.143555 -0.114258 0.999663 137 106 91 
0.143555 -0.108398 1.000998 138 109 90 
0.146542 -0.178711 1.034180 172 156 145 
0.145415 -0.172852 1.016602 175 153 142 
0.149414 -0.173621 1.022461 171 150 139 
0.149414 -0.172852 1.020226 172 150 138 
0.149414 -0.175009 1.028320 169 148 137 
0.149414 -0.177039 1.034180 169 151 141 
0.144644 -0.172852 1.034180 163 151 147 
0.145999 -0.166992 1.004883 173 142 132 
0.149414 -0.168186 1.010742 171 143 131 
0.149414 -0.166992 1.008282 171 141 130 
0.149414 -0.170964 1.016602 171 146 135 
0.149414 -0.168125 1.034180 161 138 135 
0.149414 -0.166992 1.033260 160 135 132 
0.143662 -0.161133 0.993164 170 127 118 
0.149354 -0.161133 0.999023 169 130 121 
0.149414 -0.164630 1.004883 170 135 125 
0.149414 -0.161133 0.999075 169 130 121 
0.149414 -0.161133 1.030943 158 129 127 
0.143723 -0.155273 0.987305 167 114 106 
0.149298 -0.155273 0.993164 167 122 114 
0.149414 -0.161074 0.999023 169 130 121 
0.149414 -0.155273 0.993268 167 122 114 
0.145084 -0.155273 1.028320 155 118 116 
0.149414 -0.155273 1.031090 155 120 118 
0.145923 -0.149414 0.987305 164 112 103 
0.149414 -0.155063 0.993164 167 122 114 
0.149414 -0.149414 0.990589 165 118 110 
0.149414 -0.149414 1.033485 150 119 117 
0.147875 -0.143555 0.987305 157 105 95 
0.149414 -0.143555 0.988731 158 108 98 
0.149414 -0.148198 1.034180 148 119 117 
0.147390 -0.143555 1.034180 145 120 117 
0.146852 -0.137695 0.987305 148 96 87 
0.149414 -0.137695 0.990572 149 99 90 
0.144080 -0.131836 0.987305 136 82 75 
0.149414 -0.132465 0.993164 147 101 91 
0.149050 -0.131836 0.993164 146 101 90 
0.149414 -0.131836 0.993580 147 102 91 
0.145732 -0.125977 0.993164 137 93 83 
0.149414 -0.125977 0.997300 148 110 96 
0.149414 -0.122926 0.999023 148 112 98 
0.147460 -0.120117 0.999023 143 109 94 
0.149414 -0.120117 1.001008 148 116 99 
0.149414 -0.114258 1.002857 147 120 102 
0.151076 -0.172852 1.022461 171 149 137 
0.155088 -0.172852 1.028320 167 145 132 
0.155273 -0.173513 1.034180 163 140 128 
0.155273 -0.172852 1.029015 167 145 132 
0.151188 -0.166992 1.010742 170 141 129 
0.155273 -0.167281 1.016602 167 139 126 
0.155273 -0.166992 1.016024 167 139 126 
0.155273 -0.168614 1.022461 168 137 126 
0.155273 -0.172449 1.028320 167 144 132 
0.150994 -0.166992 1.034180 161 135 131 
0.153601 -0.161133 1.004883 166 132 121 
0.155273 -0.162595 1.010742 167 133 121 
0.155273 -0.161133 1.007907 166 132 120 
0.152826 -0.161133 1.034180 160 134 130 
0.153439 -0.155273 0.999023 166 127 116 
0.155273 -0.156275 1.004883 166 127 116 
0.155273 -0.155273 1.003879 166 127 116 
0.152663 -0.155273 1.034180 158 127 123 
0.151346 -0.149414 0.993164 165 121 111 
0.154799 -0.149414 0.999023 164 125 114 
0.155273 -0.149414 1.002016 163 123 113 
0.150102 -0.149414 1.034180 150 120 119 
0.151885 -0.143555 0.993164 158 111 100 
0.154005 -0.143555 0.999023 158 113 103 
0.155273 -0.143555 1.003347 159 116 105 
0.150985 -0.137695 0.993164 150 101 90 
0.153481 -0.137695 0.999023 154 110 98 
0.155273 -0.137695 1.003945 157 118 105 
0.152556 -0.131836 0.999023 150 108 95 
0.155273 -0.131836 1.003695 156 119 102 
0.150838 -0.125977 0.999023 149 112 98 
0.155273 -0.125977 1.004855 154 122 104 
0.155273 -0.125827 1.004883 154 122 104 
0.153880 -0.120117 1.004883 152 122 104 
0.155273 -0.120117 1.006033 153 125 106 
0.154761 -0.114258 1.004883 152 126 108 
0.155273 -0.114258 1.005126 153 127 109 
0.156588 -0.172852 1.034180 163 140 127 
0.155684 -0.166992 1.016602 167 139 126 
0.156971 -0.166992 1.022461 167 135 124 
0.157284 -0.166992 1.028320 165 131 120 
0.158322 -0.166992 1.034180 163 131 119 
0.156361 -0.161133 1.010742 167 132 120 
0.156300 -0.161133 1.016602 167 126 116 
0.157722 -0.161133 1.022461 165 127 116 
0.159401 -0.161133 1.028320 163 127 114 
0.160919 -0.161133 1.034180 161 130 115 
0.155536 -0.155273 1.004883 166 126 115 
0.156150 -0.155273 1.010742 165 124 115 
0.158264 -0.155273 1.016602 164 125 115 
0.159800 -0.155273 1.022461 162 127 113 
0.160983 -0.155273 1.028320 161 128 112 
0.161133 -0.160790 1.034180 161 130 114 
0.161133 -0.155273 1.028589 161 129 112 
0.155631 -0.149414 1.004883 162 121 111 
0.157072 -0.149414 1.010742 162 121 112 
0.159099 -0.149414 1.016602 161 123 111 
0.161133 -0.151316 1.022461 161 127 112 
0.161133 -0.149414 1.021169 161 127 112 
0.161133 -0.154768 1.028320 161 128 112 
0.155783 -0.143555 1.004883 159 117 105 
0.157621 -0.143555 1.010742 159 120 108 
0.160098 -0.143555 1.016602 159 125 110 
0.161133 -0.143555 1.018793 159 127 111 
0.155608 -0.137695 1.004883 157 119 105 
0.158706 -0.137695 1.010742 158 123 107 
0.161133 -0.140190 1.016602 160 129 112 
0.161133 -0.137695 1.015181 160 130 112 
0.156155 -0.131836 1.004883 156 120 102 
0.159225 -0.131836 1.010742 159 127 108 
0.161133 -0.131836 1.013618 161 131 111 
0.155302 -0.125977 1.004883 155 122 104 
0.159986 -0.125977 1.010742 157 128 108 
0.161133 -0.125977 1.011913 158 129 109 
0.161133 -0.123696 1.010742 158 130 110 
0.161133 -0.120117 1.009048 158 131 112 
0.163803 -0.155273 1.034180 160 130 112 
0.161654 -0.149414 1.022461 161 127 112 
0.163282 -0.149414 1.028320 160 130 111 
0.166586 -0.149414 1.034180 160 132 111 
0.163204 -0.143555 1.022461 160 130 112 
0.166370 -0.143555 1.028320 159 132 112 
0.166992 -0.148532 1.034180 160 133 111 
0.166992 -0.143555 1.029264 159 132 112 
0.162010 -0.137695 1.016602 160 130 112 
0.166304 -0.137695 1.022461 162 136 116 
0.166992 -0.142617 1.028320 160 133 113 
0.166992 -0.137695 1.023355 162 136 117 
0.163891 -0.131836 1.016602 161 133 112 
0.166992 -0.136632 1.022461 162 136 117 
0.166992 -0.131836 1.019471 162 134 113 
0.166174 -0.125977 1.016602 161 134 113 
0.166992 -0.125977 1.017130 161 134 113 
0.166992 -0.124959 1.016602 161 134 113 
0.171349 -0.143555 1.034180 160 135 114 
0.171554 -0.137695 1.028320 162 139 119 
0.172852 -0.142150 1.034180 161 137 116 
0.172852 -0.137695 1.029537 162 139 120 
0.172852 -0.136389 1.028320 162 139 119 
0.102539 -0.166992 1.039171 154 126 109 
0.102539 -0.161133 1.037769 145 117 105 
0.102539 -0.155273 1.038053 140 109 101 
0.096680 -0.155273 1.038126 139 107 96 
0.098004 -0.149414 1.040039 137 105 97 
0.096680 -0.149596 1.040039 137 105 97 
0.102539 -0.149414 1.039948 136 104 99 
0.096680 -0.149414 1.040073 137 105 97 
0.102539 -0.149414 1.069899 153 141 139 
0.102539 -0.149251 1.040039 136 104 99 
0.102539 -0.145685 1.045898 140 114 110 
0.098551 -0.143555 1.045898 139 113 108 
0.096680 -0.143555 1.045038 138 111 105 
0.102539 -0.145400 1.051758 143 122 119 
0.100695 -0.143555 1.051758 143 123 119 
0.102539 -0.146053 1.057617 146 129 126 
0.100078 -0.143555 1.057617 147 131 128 
0.102539 -0.146688 1.063477 148 134 132 
0.098336 -0.143555 1.063477 150 137 134 
0.102539 -0.149126 1.069336 152 140 138 
0.096680 -0.143555 1.065586 151 140 136 
0.096680 -0.143046 1.045898 138 112 106 
0.096680 -0.139452 1.051758 140 124 120 
0.096680 -0.139933 1.057617 145 133 130 
0.096680 -0.142339 1.063477 149 138 135 
0.108398 -0.172852 1.037511 164 145 128 
0.108398 -0.166992 1.037637 152 128 116 
0.108398 -0.161133 1.037016 145 120 110 
0.108398 -0.155273 1.038120 140 113 105 
0.108398 -0.149414 1.038673 138 110 104 
0.108398 -0.149513 1.069336 152 143 142 
0.107212 -0.149414 1.069336 152 142 142 
0.108398 -0.149414 1.069173 152 143 142 
0.108398 -0.146721 1.040039 137 110 105 
0.106697 -0.143555 1.045898 138 114 110 
0.108398 -0.143555 1.044777 137 113 109 
0.104968 -0.143555 1.051758 142 124 121 
0.108007 -0.143555 1.057617 148 137 136 
0.108398 -0.146631 1.063477 149 140 139 
0.108398 -0.143555 1.057963 148 138 137 
0.108398 -0.143048 1.045898 137 114 110 
0.108398 -0.140727 1.051758 141 126 125 
0.108398 -0.143379 1.057617 148 138 137 
0.114258 -0.178711 1.034495 168 163 139 
0.114258 -0.172852 1.036188 162 146 129 
0.114258 -0.166992 1.034745 154 132 119 
0.114258 -0.161133 1.034851 146 125 113 
0.114258 -0.149694 1.069336 152 148 149 
0.114258 -0.149414 1.068468 152 147 148 
0.109929 -0.143555 1.040039 138 112 108 
0.114258 -0.143555 1.035541 137 112 110 
0.114258 -0.145496 1.057617 144 130 128 
0.108900 -0.143555 1.057617 148 137 136 
0.114258 -0.143555 1.055647 143 129 128 
0.114258 -0.147621 1.063477 149 141 141 
0.114258 -0.139561 1.040039 139 118 115 
0.114258 -0.138628 1.045898 141 125 122 
0.114258 -0.140592 1.051758 143 129 127 
0.120117 -0.178711 1.036688 164 158 137 
0.120117 -0.172852 1.035286 163 152 135 
0.120117 -0.151226 1.069336 149 143 143 
0.120117 -0.149414 1.066052 147 139 140 
0.119277 -0.143555 1.057617 146 136 135 
0.120117 -0.147440 1.063477 146 138 138 
0.120117 -0.143555 1.058270 146 137 137 
0.117641 -0.137695 1.040039 139 121 118 
0.120117 -0.137695 1.038529 137 119 116 
0.115655 -0.137695 1.045898 142 127 125 
0.120117 -0.138414 1.051758 146 139 139 
0.120117 -0.137695 1.050480 145 138 138 
0.120117 -0.143002 1.057617 146 138 137 
0.120117 -0.136295 1.040039 138 121 119 
0.120117 -0.135040 1.045898 144 136 136 
0.125977 -0.172852 1.034873 162 154 139 
0.125977 -0.150292 1.069336 148 144 145 
0.125977 -0.149414 1.068350 148 144 146 
0.125977 -0.145750 1.063477 148 146 148 
0.125977 -0.143555 1.059149 148 145 147 
0.125977 -0.137695 1.037738 139 121 119 
0.125977 -0.138318 1.045898 143 133 133 
0.124946 -0.137695 1.045898 143 134 134 
0.125977 -0.137695 1.044864 142 133 132 
0.125977 -0.139470 1.051758 147 142 143 
0.125977 -0.142611 1.057617 148 146 147 
0.125977 -0.136226 1.040039 139 125 124 
0.131836 -0.178711 1.038134 164 159 141 
0.131836 -0.172852 1.034397 157 153 140 
0.131836 -0.150709 1.069336 150 150 153 
0.131836 -0.149414 1.066506 149 150 153 
0.131836 -0.144983 1.057617 147 145 147 
0.127859 -0.143555 1.057617 148 145 147 
0.131836 -0.143555 1.055112 146 142 144 
0.131836 -0.147954 1.063477 149 148 151 
0.131836 -0.137695 1.034310 141 123 121 
0.131836 -0.138944 1.045898 144 135 136 
0.131836 -0.137695 1.044233 143 135 135 
0.131836 -0.141264 1.051758 144 139 141 
0.131836 -0.135498 1.040039 141 130 129 
0.137695 -0.178711 1.038429 165 157 143 
0.137695 -0.155273 1.073399 149 151 155 
0.137695 -0.152147 1.069336 150 152 155 
0.137695 -0.149414 1.064571 149 150 154 
0.137695 -0.143883 1.057617 147 147 150 
0.137695 -0.143555 1.056268 147 146 148 
0.137695 -0.148618 1.063477 149 150 153 
0.137695 -0.138291 1.045898 144 140 142 
0.137695 -0.137695 1.045387 145 141 142 
0.137695 -0.142115 1.051758 146 143 145 
0.137695 -0.134588 1.040039 143 134 135 
0.143555 -0.179128 1.040039 171 158 150 
0.141342 -0.178711 1.040039 168 158 148 
0.143555 -0.178711 1.040704 170 158 151 
0.143555 -0.178347 1.040039 170 158 151 
0.143555 -0.155273 1.071657 149 152 157 
0.143555 -0.149415 1.063477 148 150 154 
0.143544 -0.149414 1.063477 149 150 154 
0.143555 -0.149414 1.063474 148 150 154 
0.143555 -0.153983 1.069336 149 152 156 
0.143555 -0.143769 1.051758 145 143 146 
0.142350 -0.143555 1.051758 145 143 146 
0.143555 -0.143555 1.051557 145 143 146 
0.143555 -0.146754 1.057617 147 146 148 
0.143555 -0.137695 1.038294 145 131 131 
0.138592 -0.137695 1.045898 145 142 144 
0.143555 -0.137695 1.049015 147 151 155 
0.143555 -0.136059 1.040039 145 134 135 
0.143555 -0.135589 1.045898 146 147 150 
0.149414 -0.179455 1.040039 168 152 141 
0.149414 -0.178711 1.037001 169 153 142 
0.148121 -0.178711 1.045898 166 154 147 
0.149414 -0.175394 1.040039 165 149 143 
0.149414 -0.172852 1.038586 163 146 142 
0.149414 -0.178018 1.045898 165 153 146 
0.149414 -0.155273 1.070362 148 151 156 
0.149414 -0.151255 1.063477 147 150 153 
0.149414 -0.149414 1.060383 146 148 152 
0.149414 -0.154682 1.069336 148 151 155 
0.149414 -0.143555 1.036927 145 124 122 
0.144156 -0.143555 1.051758 145 144 147 
0.149414 -0.146434 1.057617 147 150 154 
0.149414 -0.143555 1.055124 147 151 155 
0.149414 -0.141064 1.040039 144 129 129 
0.145474 -0.137695 1.040039 145 134 135 
0.149414 -0.140285 1.045898 147 141 143 
0.146990 -0.137695 1.045898 147 145 148 
0.149414 -0.141116 1.051758 146 148 152 
0.151781 -0.178711 1.040039 168 152 141 
0.153599 -0.178711 1.045898 164 148 137 
0.155273 -0.174703 1.040039 165 144 134 
0.152515 -0.172852 1.040039 163 144 137 
0.155273 -0.175584 1.045898 163 144 134 
0.155011 -0.172852 1.045898 163 142 135 
0.155273 -0.172852 1.046470 162 142 135 
0.154616 -0.166992 1.040039 162 137 132 
0.155273 -0.170915 1.045898 162 141 135 
0.155273 -0.166992 1.043461 161 138 133 
0.154946 -0.161133 1.040039 160 135 131 
0.155273 -0.161133 1.040673 160 135 131 
0.155273 -0.156081 1.040039 158 131 128 
0.155273 -0.155273 1.039969 158 130 127 
0.155273 -0.155963 1.069336 148 152 156 
0.151720 -0.155273 1.069336 148 151 156 
0.155273 -0.155273 1.068119 148 153 156 
0.155273 -0.158752 1.075195 148 154 159 
0.155273 -0.155158 1.040039 157 130 127 
0.153327 -0.149414 1.040039 151 128 126 
0.155273 -0.149414 1.044433 151 134 133 
0.155273 -0.150980 1.063477 147 153 157 
0.155273 -0.149414 1.061946 147 152 156 
0.151783 -0.143555 1.040039 147 131 129 
0.155273 -0.147960 1.045898 150 136 135 
0.151434 -0.143555 1.045898 147 138 138 
0.155273 -0.144678 1.051758 150 147 149 
0.153313 -0.143555 1.051758 148 148 150 
0.155273 -0.146075 1.057617 148 150 154 
0.156797 -0.172852 1.040039 163 139 129 
0.156135 -0.172852 1.045898 162 141 132 
0.161133 -0.173030 1.051758 159 136 123 
0.160936 -0.172852 1.051758 159 136 124 
0.161133 -0.172852 1.051450 159 136 123 
0.161133 -0.173339 1.057617 158 137 126 
0.160988 -0.172852 1.057617 158 137 127 
0.161133 -0.172852 1.058165 158 137 127 
0.158660 -0.166992 1.040039 161 133 122 
0.161133 -0.169430 1.045898 160 135 121 
0.157201 -0.166992 1.045898 160 138 131 
0.161133 -0.166992 1.041998 160 132 118 
0.160890 -0.166992 1.051758 158 137 126 
0.161133 -0.171620 1.057617 157 138 128 
0.161133 -0.166992 1.053560 157 138 128 
0.161133 -0.165298 1.040039 160 131 117 
0.161133 -0.161133 1.034569 161 130 115 
0.158249 -0.161133 1.045898 157 137 129 
0.159564 -0.161133 1.051758 156 140 133 
0.161133 -0.161133 1.057269 154 143 137 
0.155351 -0.155273 1.040039 158 130 127 
0.158270 -0.155273 1.045898 156 138 131 
0.159835 -0.155273 1.051758 155 142 136 
0.161133 -0.155273 1.054811 153 144 139 
0.161133 -0.159249 1.069336 148 152 155 
0.161133 -0.155273 1.065138 149 152 153 
0.161133 -0.160163 1.075195 148 154 159 
0.156040 -0.149414 1.045898 152 137 135 
0.157905 -0.149414 1.051758 153 145 142 
0.161133 -0.149414 1.056744 150 150 149 
0.161133 -0.153472 1.063477 150 151 153 
0.161133 -0.149414 1.059142 150 152 153 
0.161133 -0.148693 1.057617 150 151 152 
0.161292 -0.172852 1.051758 159 136 123 
0.161521 -0.172852 1.057617 158 137 126 
0.162950 -0.166992 1.045898 159 133 118 
0.162774 -0.166992 1.051758 158 136 123 
0.166992 -0.169044 1.057617 157 135 118 
0.163072 -0.166992 1.057617 156 139 128 
0.166992 -0.166992 1.053872 157 134 117 
0.164697 -0.166992 1.063477 154 141 132 
0.163609 -0.161133 1.040039 160 131 114 
0.166992 -0.161292 1.045898 159 132 113 
0.166992 -0.161133 1.045690 159 132 113 
0.166992 -0.165355 1.051758 158 133 116 
0.161343 -0.161133 1.057617 154 143 137 
0.163732 -0.161133 1.063477 152 146 142 
0.163276 -0.161133 1.069336 149 150 151 
0.166992 -0.156014 1.040039 158 131 110 
0.166992 -0.155273 1.039299 159 131 110 
0.162404 -0.155273 1.057617 152 146 141 
0.161969 -0.155273 1.063477 150 150 149 
0.166992 -0.149414 1.034919 160 133 111 
0.161608 -0.149414 1.057617 150 150 150 
0.167114 -0.161133 1.045898 159 132 113 
0.167623 -0.155273 1.040039 159 131 111 
0.170867 -0.155273 1.045898 158 132 111 
0.170732 -0.149414 1.040039 159 134 111 
0.172852 -0.149414 1.042687 159 134 112 
0.172852 -0.146626 1.040039 159 134 111 
0.172852 -0.143555 1.035998 160 136 114 
0.090820 -0.143555 1.049630 138 110 100 
0.090820 -0.140545 1.045898 135 107 98 
0.089546 -0.137695 1.045898 133 108 98 
0.090820 -0.137695 1.042416 131 104 95 
0.090820 -0.134866 1.040039 128 103 94 
0.089714 -0.131836 1.040039 126 105 96 
0.090820 -0.131836 1.037477 124 101 93 
0.090820 -0.125977 1.034675 119 100 92 
0.090820 -0.124267 1.034180 118 100 92 
0.095410 -0.155273 1.034180 138 104 91 
0.094521 -0.149414 1.034180 134 98 88 
0.096643 -0.149414 1.040039 137 105 96 
0.093861 -0.143555 1.034180 132 95 85 
0.093552 -0.143555 1.040039 135 102 93 
0.091871 -0.143555 1.051758 140 114 105 
0.092954 -0.143555 1.057617 144 124 116 
0.094177 -0.143555 1.063477 148 133 127 
0.092889 -0.137695 1.034180 127 93 85 
0.091557 -0.137695 1.040039 131 102 93 
0.092027 -0.131836 1.034180 123 96 88 
0.091119 -0.125977 1.034180 118 99 91 
0.090820 -0.120117 1.033126 115 99 91 
0.096423 -0.161133 1.028320 145 111 92 
0.096320 -0.155273 1.010742 138 97 77 
0.095640 -0.155273 1.016602 138 97 79 
0.095037 -0.155273 1.022461 137 98 82 
0.095103 -0.155273 1.028320 138 100 86 
0.095607 -0.149414 1.010742 130 86 72 
0.094726 -0.149414 1.016602 131 87 74 
0.094326 -0.149414 1.022461 131 89 77 
0.094511 -0.149414 1.028320 132 93 82 
0.095302 -0.143555 1.010742 125 79 67 
0.094685 -0.143555 1.016602 126 81 69 
0.094192 -0.143555 1.022461 127 83 72 
0.094012 -0.143555 1.028320 129 88 77 
0.096092 -0.137695 1.010742 120 72 62 
0.095102 -0.137695 1.016602 122 75 64 
0.094460 -0.137695 1.022461 123 78 68 
0.093827 -0.137695 1.028320 124 84 75 
0.096538 -0.131836 1.016602 117 70 60 
0.095190 -0.131836 1.022461 118 75 66 
0.093780 -0.131836 1.028320 120 84 75 
0.096587 -0.125977 1.022461 112 71 63 
0.094165 -0.125977 1.028320 114 84 77 
0.094994 -0.120117 1.028320 106 82 73 
0.094762 -0.114258 1.028320 99 78 67 
