ply
format ascii 1.0
comment Created by Open3D
obj_info Generated by CloudCompare!
element vertex 742
property float x
property float y
property float z
property uchar red
property uchar green
property uchar blue
end_header
-0.190430 -0.169173 0.752930 133 85 97 
-0.192236 -0.166992 0.752930 131 83 94 
-0.190430 -0.166992 0.751241 132 83 94 
-0.194114 -0.161133 0.752930 126 79 88 
-0.190430 -0.161133 0.749441 128 76 85 
-0.194548 -0.155273 0.752930 120 76 84 
-0.190430 -0.155273 0.748314 122 73 80 
-0.193925 -0.149414 0.752930 115 73 80 
-0.190430 -0.149414 0.749620 116 70 78 
-0.191144 -0.143555 0.752930 109 68 76 
-0.190430 -0.143555 0.752420 109 68 76 
-0.190430 -0.142760 0.752930 109 68 76 
-0.184570 -0.173663 0.752930 135 89 103 
-0.186178 -0.172852 0.752930 135 89 102 
-0.184570 -0.172852 0.751643 136 89 102 
-0.184570 -0.166992 0.748528 134 82 94 
-0.184570 -0.163621 0.747070 131 80 90 
-0.186371 -0.161133 0.747070 129 77 86 
-0.184570 -0.161133 0.745877 129 77 87 
-0.187967 -0.155273 0.747070 122 73 80 
-0.184570 -0.155273 0.745286 123 72 80 
-0.184570 -0.150555 0.747070 118 72 79 
-0.184570 -0.149414 0.747419 117 71 79 
-0.184570 -0.143555 0.749184 110 67 76 
-0.184570 -0.137796 0.752930 105 67 77 
-0.202148 -0.185709 0.799805 124 108 121 
-0.204671 -0.184570 0.799805 124 108 121 
-0.202148 -0.184570 0.795345 125 107 121 
-0.202148 -0.184838 0.805664 123 111 124 
-0.202617 -0.184570 0.805664 123 111 124 
-0.202148 -0.184570 0.805860 123 111 124 
-0.196289 -0.191252 0.805664 123 108 122 
-0.197977 -0.190430 0.805664 123 108 122 
-0.196289 -0.190430 0.804143 123 107 122 
-0.196289 -0.192167 0.811523 122 109 121 
-0.196289 -0.185655 0.788086 127 104 118 
-0.198562 -0.184570 0.788086 127 103 117 
-0.196289 -0.184570 0.784684 128 102 117 
-0.196289 -0.186806 0.793945 126 106 122 
-0.201486 -0.184570 0.793945 125 106 121 
-0.196289 -0.187457 0.799805 124 107 122 
-0.196289 -0.184797 0.811523 121 113 128 
-0.196289 -0.184570 0.810540 121 113 128 
-0.196289 -0.184570 0.811735 121 113 128 
-0.190430 -0.191392 0.799805 124 107 122 
-0.192436 -0.190430 0.799805 124 107 122 
-0.190430 -0.190430 0.796685 125 106 122 
-0.190430 -0.191503 0.805664 123 107 119 
-0.190430 -0.193229 0.811523 122 107 117 
-0.190430 -0.185955 0.782227 128 102 120 
-0.194445 -0.184570 0.782227 128 102 117 
-0.190430 -0.184570 0.778568 129 101 118 
-0.190430 -0.187697 0.788086 126 104 121 
-0.190430 -0.189262 0.793945 125 105 122 
-0.195981 -0.184570 0.811523 121 113 128 
-0.184570 -0.190459 0.793945 125 105 121 
-0.184757 -0.190430 0.793945 125 105 121 
-0.184570 -0.190430 0.793856 125 105 121 
-0.184570 -0.190683 0.799805 124 103 117 
-0.184570 -0.191887 0.805664 123 105 116 
-0.184570 -0.193095 0.811523 122 107 115 
-0.184570 -0.193495 0.817383 121 106 111 
-0.184570 -0.185281 0.776367 129 102 121 
-0.187136 -0.184570 0.776367 129 101 120 
-0.184570 -0.184570 0.773832 130 100 119 
-0.184570 -0.186946 0.782227 127 103 121 
-0.184570 -0.188538 0.788086 127 104 122 
-0.225586 -0.164042 0.788086 118 94 100 
-0.226605 -0.161133 0.788086 116 96 100 
-0.225586 -0.161133 0.785571 117 95 99 
-0.225586 -0.161133 0.788642 117 96 102 
-0.225586 -0.158997 0.782227 115 93 97 
-0.226683 -0.155273 0.782227 113 93 96 
-0.225586 -0.155273 0.780422 113 92 95 
-0.227249 -0.155273 0.788086 113 96 101 
-0.225586 -0.155273 0.788504 114 97 103 
-0.227279 -0.149414 0.782227 112 94 95 
-0.225586 -0.149414 0.779627 112 93 94 
-0.226861 -0.149414 0.788086 111 96 99 
-0.225586 -0.149414 0.788303 111 95 100 
-0.226190 -0.143555 0.782227 110 92 93 
-0.225586 -0.143555 0.781228 110 92 93 
-0.226375 -0.143555 0.788086 109 93 96 
-0.225586 -0.143555 0.788379 109 93 96 
-0.225586 -0.141845 0.782227 109 91 92 
-0.225586 -0.141264 0.788086 108 91 94 
-0.219727 -0.167632 0.782227 121 91 99 
-0.220320 -0.166992 0.782227 121 91 98 
-0.219727 -0.166992 0.781258 121 91 98 
-0.219727 -0.166992 0.784239 121 94 102 
-0.224350 -0.161133 0.782227 117 93 98 
-0.219727 -0.161133 0.776476 118 91 96 
-0.224050 -0.161133 0.788086 117 96 102 
-0.219727 -0.161133 0.785969 118 96 104 
-0.219727 -0.160954 0.776367 118 90 96 
-0.221860 -0.155273 0.776367 114 91 94 
-0.219727 -0.155273 0.773955 114 89 93 
-0.224904 -0.155273 0.788086 114 97 103 
-0.219727 -0.155273 0.784578 115 94 101 
-0.222321 -0.149414 0.776367 112 91 93 
-0.219727 -0.149414 0.773249 111 88 91 
-0.224886 -0.149414 0.788086 111 95 100 
-0.219727 -0.149414 0.785238 114 93 99 
-0.220795 -0.143555 0.776367 109 88 90 
-0.219727 -0.143555 0.774449 109 88 90 
-0.224793 -0.143555 0.788086 109 92 96 
-0.219727 -0.143555 0.785757 110 89 94 
-0.219727 -0.140304 0.776367 108 87 89 
-0.222422 -0.137695 0.782227 106 85 87 
-0.219727 -0.137695 0.778104 106 85 87 
-0.219727 -0.139494 0.788086 107 85 91 
-0.223506 -0.137695 0.788086 106 86 90 
-0.219727 -0.137695 0.789462 106 84 90 
-0.219727 -0.133471 0.782227 103 83 84 
-0.219727 -0.131836 0.784977 101 82 84 
-0.219727 -0.133357 0.793945 103 84 89 
-0.213867 -0.173372 0.782227 126 97 106 
-0.214472 -0.172852 0.782227 125 97 106 
-0.213867 -0.172852 0.781350 126 96 106 
-0.213867 -0.172852 0.783209 125 97 107 
-0.213867 -0.168764 0.776367 123 91 100 
-0.215710 -0.166992 0.776367 122 90 98 
-0.213867 -0.166992 0.774224 123 90 98 
-0.213867 -0.166992 0.784419 122 96 106 
-0.213867 -0.161743 0.770508 120 88 95 
-0.214336 -0.161133 0.770508 119 88 95 
-0.213867 -0.161133 0.769926 120 88 95 
-0.219628 -0.161133 0.776367 118 90 96 
-0.213867 -0.161133 0.783571 119 94 102 
-0.215971 -0.155273 0.770508 115 87 92 
-0.213867 -0.155273 0.767719 115 86 92 
-0.213867 -0.155516 0.782227 116 91 100 
-0.214066 -0.155273 0.782227 115 91 100 
-0.213867 -0.155273 0.782072 115 91 100 
-0.216906 -0.149414 0.770508 112 86 90 
-0.213867 -0.149414 0.767041 112 84 89 
-0.213867 -0.154907 0.782227 115 91 100 
-0.213867 -0.149414 0.783114 113 90 98 
-0.215863 -0.143555 0.770508 109 84 87 
-0.213867 -0.143555 0.768688 108 82 86 
-0.213867 -0.143555 0.784554 110 86 93 
-0.213867 -0.140406 0.770508 106 80 83 
-0.218320 -0.137695 0.776367 106 84 87 
-0.213867 -0.137695 0.772058 104 78 82 
-0.216420 -0.137695 0.788086 106 84 90 
-0.213867 -0.137695 0.787060 107 83 90 
-0.213954 -0.131836 0.776367 101 78 80 
-0.213867 -0.131836 0.776264 101 78 80 
-0.217981 -0.131836 0.782227 102 81 83 
-0.213867 -0.136116 0.788086 105 83 89 
-0.215620 -0.131836 0.793945 104 84 90 
-0.213867 -0.131836 0.792839 104 84 90 
-0.213867 -0.131735 0.776367 101 78 80 
-0.213867 -0.126903 0.782227 100 80 81 
-0.213867 -0.125977 0.783259 100 80 82 
-0.213867 -0.130853 0.793945 103 85 90 
-0.213867 -0.128774 0.799805 104 91 96 
-0.208008 -0.174335 0.776367 127 95 105 
-0.209899 -0.172852 0.776367 127 94 104 
-0.208008 -0.172852 0.773714 127 93 103 
-0.208008 -0.177355 0.782227 127 100 110 
-0.208008 -0.172852 0.783991 126 101 112 
-0.208008 -0.169473 0.770508 126 90 100 
-0.210118 -0.166992 0.770508 124 89 98 
-0.208008 -0.166992 0.767597 124 88 97 
-0.208008 -0.169245 0.782227 124 97 109 
-0.210234 -0.166992 0.782227 122 95 106 
-0.208008 -0.166992 0.780401 123 95 106 
-0.208008 -0.161133 0.764658 121 85 93 
-0.210448 -0.161133 0.782227 120 94 103 
-0.208008 -0.161133 0.780707 120 94 103 
-0.208008 -0.161097 0.764648 121 85 93 
-0.209860 -0.155273 0.764648 117 84 90 
-0.208008 -0.155273 0.762901 117 83 90 
-0.208008 -0.155273 0.780378 117 90 99 
-0.210408 -0.149414 0.764648 112 82 87 
-0.208008 -0.149414 0.762494 113 80 86 
-0.211316 -0.149414 0.782227 113 89 97 
-0.208008 -0.149414 0.780473 114 87 95 
-0.208690 -0.143555 0.764648 109 78 83 
-0.208008 -0.143555 0.764007 109 77 83 
-0.208008 -0.145067 0.782227 110 85 93 
-0.208008 -0.143555 0.782845 109 85 93 
-0.208008 -0.143743 0.811523 114 119 127 
-0.208132 -0.143555 0.811523 114 119 126 
-0.208008 -0.143555 0.811398 114 119 126 
-0.208008 -0.142387 0.764648 108 76 82 
-0.211770 -0.137695 0.770508 104 77 81 
-0.208008 -0.137695 0.767181 104 74 79 
-0.208008 -0.137695 0.785071 106 83 90 
-0.208008 -0.133636 0.770508 102 73 78 
-0.208008 -0.131836 0.771977 100 73 78 
-0.208008 -0.133305 0.788086 103 82 89 
-0.208008 -0.131836 0.790720 104 84 91 
-0.208008 -0.131836 0.808886 113 110 115 
-0.208008 -0.127217 0.776367 99 75 78 
-0.213002 -0.125977 0.782227 100 80 81 
-0.208008 -0.125977 0.777754 98 75 78 
-0.208008 -0.130447 0.793945 104 87 93 
-0.208008 -0.130113 0.799805 107 95 100 
-0.208008 -0.130863 0.805664 111 106 110 
-0.208008 -0.121939 0.782227 96 79 80 
-0.208008 -0.120117 0.783875 96 80 81 
-0.202148 -0.180859 0.782227 129 101 114 
-0.206485 -0.178711 0.782227 128 101 112 
-0.202148 -0.178711 0.776819 129 101 113 
-0.202148 -0.178711 0.787891 126 103 116 
-0.202148 -0.182772 0.799805 124 110 125 
-0.202148 -0.184373 0.805664 122 111 125 
-0.202148 -0.174561 0.770508 129 94 105 
-0.204816 -0.172852 0.770508 128 93 103 
-0.202148 -0.172852 0.767013 129 92 103 
-0.202148 -0.178411 0.776367 129 101 113 
-0.202148 -0.172852 0.784776 126 106 120 
-0.202148 -0.169900 0.764648 128 89 99 
-0.204658 -0.166992 0.764648 126 87 97 
-0.202148 -0.166992 0.762040 126 86 96 
-0.202148 -0.167703 0.782227 125 100 112 
-0.202148 -0.166992 0.781738 125 99 111 
-0.207995 -0.161133 0.764648 121 85 93 
-0.202148 -0.161133 0.759861 123 82 90 
-0.202148 -0.163680 0.782227 122 98 110 
-0.203212 -0.161133 0.782227 120 97 108 
-0.202148 -0.161133 0.782614 120 97 109 
-0.202148 -0.155273 0.758960 118 80 88 
-0.202148 -0.159196 0.782227 118 97 108 
-0.202148 -0.155273 0.781607 114 95 106 
-0.202148 -0.152110 0.758789 116 78 85 
-0.202396 -0.149414 0.758789 113 76 84 
-0.202148 -0.149414 0.758602 113 76 83 
-0.202148 -0.149414 0.780488 114 89 98 
-0.202148 -0.150225 0.805664 112 118 128 
-0.202693 -0.149414 0.805664 112 116 127 
-0.202148 -0.149414 0.805111 112 117 128 
-0.202148 -0.149414 0.806884 112 119 130 
-0.202148 -0.153066 0.817383 113 130 145 
-0.202148 -0.149414 0.813746 112 130 143 
-0.202148 -0.148421 0.758789 113 76 83 
-0.202148 -0.143555 0.759772 109 73 80 
-0.202148 -0.145861 0.782227 112 88 97 
-0.202148 -0.143555 0.783949 111 89 98 
-0.202148 -0.143771 0.799805 113 110 118 
-0.202359 -0.143555 0.799805 113 109 117 
-0.202148 -0.143555 0.799426 113 110 117 
-0.204342 -0.143555 0.805664 112 117 124 
-0.202148 -0.146680 0.811523 112 127 139 
-0.204484 -0.137695 0.764648 104 72 79 
-0.202148 -0.137695 0.762619 104 71 78 
-0.202148 -0.137695 0.787551 109 91 98 
-0.202148 -0.141897 0.799805 113 110 117 
-0.203063 -0.137695 0.805664 113 111 118 
-0.202148 -0.137695 0.803456 113 111 117 
-0.202148 -0.135533 0.764648 103 71 77 
-0.205698 -0.131836 0.770508 101 72 77 
-0.202148 -0.131836 0.767922 100 70 76 
-0.202148 -0.137052 0.788086 108 91 98 
-0.202148 -0.133936 0.793945 107 94 102 
-0.205374 -0.131836 0.793945 106 90 96 
-0.202148 -0.135662 0.799805 111 107 113 
-0.205038 -0.131836 0.799805 109 99 105 
-0.206624 -0.131836 0.805664 112 108 112 
-0.202148 -0.129297 0.770508 99 70 76 
-0.205949 -0.125977 0.776367 98 74 77 
-0.202148 -0.125977 0.773880 96 71 75 
-0.202148 -0.123925 0.776367 95 72 76 
-0.205137 -0.120117 0.782227 94 78 79 
-0.202148 -0.120117 0.780430 92 75 77 
-0.202148 -0.118275 0.782227 91 76 78 
-0.202148 -0.114258 0.786231 88 78 79 
-0.202148 -0.111586 0.788086 87 79 79 
-0.196289 -0.179148 0.770508 131 99 112 
-0.197054 -0.178711 0.770508 130 99 112 
-0.196289 -0.178711 0.769649 131 99 112 
-0.196289 -0.181244 0.776367 129 99 112 
-0.201811 -0.178711 0.776367 129 101 113 
-0.196289 -0.183596 0.782227 128 101 116 
-0.202058 -0.178711 0.788086 126 103 116 
-0.198153 -0.178711 0.793945 121 111 130 
-0.199938 -0.178711 0.799805 121 111 130 
-0.196289 -0.184132 0.805664 121 111 129 
-0.196289 -0.178711 0.802439 118 113 131 
-0.196289 -0.184379 0.811523 121 114 129 
-0.198750 -0.178711 0.811523 115 123 143 
-0.196289 -0.178711 0.809614 116 120 140 
-0.196289 -0.174688 0.764648 131 94 106 
-0.199739 -0.172852 0.764648 130 92 103 
-0.196289 -0.172852 0.761681 131 91 104 
-0.197957 -0.172852 0.788086 123 109 126 
-0.196289 -0.177000 0.793945 118 113 134 
-0.196289 -0.172852 0.789991 120 112 130 
-0.196289 -0.176898 0.799805 117 115 134 
-0.196289 -0.169300 0.758789 130 87 98 
-0.198778 -0.166992 0.758789 128 86 96 
-0.196289 -0.166992 0.756807 129 85 95 
-0.201634 -0.166992 0.782227 125 99 112 
-0.196289 -0.169789 0.788086 121 110 125 
-0.196289 -0.166992 0.786637 120 107 121 
-0.201049 -0.161133 0.758789 123 81 90 
-0.196289 -0.161133 0.754699 125 80 89 
-0.196289 -0.161133 0.786290 117 106 118 
-0.196289 -0.165713 0.817383 114 132 152 
-0.199431 -0.161133 0.817383 114 133 151 
-0.196289 -0.161133 0.814305 115 133 154 
-0.201932 -0.155273 0.758789 118 80 87 
-0.196289 -0.155273 0.754744 120 77 85 
-0.200146 -0.155273 0.782227 113 97 108 
-0.196289 -0.155273 0.784455 113 97 108 
-0.199937 -0.155273 0.817383 113 132 147 
-0.196289 -0.155273 0.813088 113 131 147 
-0.196289 -0.149414 0.755177 114 74 81 
-0.199461 -0.149414 0.782227 113 93 102 
-0.196289 -0.152364 0.788086 111 98 109 
-0.198094 -0.149414 0.788086 110 97 108 
-0.196289 -0.149414 0.790042 109 103 114 
-0.196289 -0.152818 0.805664 111 125 139 
-0.196289 -0.149414 0.802787 111 123 135 
-0.196289 -0.153936 0.811523 113 128 143 
-0.200202 -0.149414 0.811523 112 127 140 
-0.200409 -0.143555 0.758789 109 73 80 
-0.196289 -0.143555 0.756812 109 71 79 
-0.198842 -0.143555 0.788086 110 99 109 
-0.196289 -0.145552 0.793945 108 110 119 
-0.198953 -0.143555 0.793945 110 110 117 
-0.196289 -0.145700 0.799805 110 115 127 
-0.196289 -0.140107 0.758789 107 70 78 
-0.196289 -0.137695 0.760198 105 70 77 
-0.201716 -0.137695 0.788086 109 92 99 
-0.196522 -0.137695 0.793945 111 106 118 
-0.201329 -0.137695 0.799805 112 110 116 
-0.196532 -0.131836 0.764648 101 69 76 
-0.196289 -0.131836 0.764501 101 69 76 
-0.196289 -0.131696 0.764648 101 69 76 
-0.196289 -0.126560 0.770508 96 68 75 
-0.196289 -0.125977 0.771067 95 68 75 
-0.196289 -0.121426 0.776367 91 70 75 
-0.196289 -0.120117 0.777863 89 71 75 
-0.196289 -0.116131 0.782227 87 73 77 
-0.196289 -0.114258 0.784393 85 75 77 
-0.196289 -0.109477 0.788086 83 76 77 
-0.196289 -0.108398 0.788877 82 77 77 
-0.190430 -0.180948 0.770508 130 98 113 
-0.190430 -0.178711 0.764958 132 96 111 
-0.190430 -0.183510 0.776367 130 100 116 
-0.193745 -0.178711 0.805664 116 119 139 
-0.190430 -0.174077 0.758789 133 91 105 
-0.192552 -0.172852 0.758789 133 90 103 
-0.190430 -0.172852 0.756604 134 90 103 
-0.190430 -0.178467 0.764648 132 95 110 
-0.190430 -0.177200 0.793945 119 110 128 
-0.190430 -0.172852 0.790130 119 112 126 
-0.195513 -0.166992 0.788086 119 108 122 
-0.190430 -0.170981 0.793945 108 116 129 
-0.193295 -0.166992 0.793945 110 112 124 
-0.194584 -0.161133 0.788086 118 104 117 
-0.190430 -0.163572 0.793945 112 114 128 
-0.190430 -0.161133 0.790095 119 102 117 
-0.194625 -0.155273 0.788086 113 96 109 
-0.190430 -0.156934 0.793945 110 119 136 
-0.191872 -0.155273 0.793945 109 119 135 
-0.192289 -0.149414 0.793945 109 116 128 
-0.192517 -0.155273 0.799805 107 117 132 
-0.192506 -0.149414 0.799805 111 123 135 
-0.192314 -0.155273 0.805664 112 133 148 
-0.195339 -0.155273 0.811523 113 131 146 
-0.194135 -0.137695 0.758789 105 69 77 
-0.190430 -0.137695 0.756391 105 68 77 
-0.190430 -0.134735 0.758789 103 68 77 
-0.190430 -0.131836 0.761788 101 67 77 
-0.190430 -0.129383 0.764648 98 67 76 
-0.195130 -0.125977 0.770508 95 68 75 
-0.190430 -0.125977 0.767993 94 67 75 
-0.190430 -0.124247 0.770508 92 68 75 
-0.191240 -0.120117 0.776367 88 69 75 
-0.190430 -0.120117 0.776114 87 69 75 
-0.190430 -0.119898 0.776367 87 69 75 
-0.190430 -0.114982 0.782227 83 72 75 
-0.190430 -0.114258 0.783127 82 72 75 
-0.192934 -0.108398 0.788086 80 75 75 
-0.190430 -0.108398 0.787455 79 73 74 
-0.184570 -0.180464 0.764648 131 95 112 
-0.190038 -0.178711 0.764648 132 95 111 
-0.184570 -0.178711 0.760217 133 93 110 
-0.184570 -0.183154 0.770508 130 97 116 
-0.184570 -0.177443 0.758789 133 93 108 
-0.188492 -0.172852 0.793945 118 111 126 
-0.187944 -0.161133 0.793945 119 103 116 
-0.184570 -0.137695 0.753015 105 67 77 
-0.186762 -0.131836 0.758789 100 65 75 
-0.184570 -0.131836 0.757270 100 64 75 
-0.184570 -0.130754 0.758789 98 65 75 
-0.184570 -0.126875 0.764648 94 66 76 
-0.184570 -0.125977 0.765777 93 66 75 
-0.184570 -0.122473 0.770508 88 67 75 
-0.184570 -0.120117 0.774296 85 67 74 
-0.184570 -0.118575 0.776367 84 68 74 
-0.186447 -0.114258 0.782227 80 70 73 
-0.184570 -0.114258 0.781817 78 68 72 
-0.184570 -0.113688 0.782227 78 69 72 
-0.184570 -0.108398 0.785948 74 69 70 
-0.184184 -0.190430 0.793945 125 105 121 
-0.182661 -0.190430 0.799805 124 103 117 
-0.178711 -0.191080 0.805664 123 105 113 
-0.178711 -0.190430 0.802631 124 104 114 
-0.178711 -0.192207 0.811523 122 106 112 
-0.178711 -0.192444 0.817383 121 107 109 
-0.178711 -0.185919 0.776367 129 103 122 
-0.178711 -0.184570 0.771691 130 101 122 
-0.178711 -0.187277 0.782227 128 103 122 
-0.178711 -0.188460 0.788086 127 103 121 
-0.178711 -0.189898 0.793945 126 104 120 
-0.178711 -0.189865 0.799805 125 104 115 
-0.177259 -0.190430 0.805664 123 105 112 
-0.174613 -0.190430 0.811523 121 107 110 
-0.172852 -0.190552 0.817383 120 108 108 
-0.172852 -0.190430 0.816740 120 108 108 
-0.172852 -0.192541 0.823242 120 109 107 
-0.172852 -0.186131 0.776367 129 102 121 
-0.172852 -0.184570 0.771263 130 102 124 
-0.172852 -0.186773 0.782227 128 102 120 
-0.172852 -0.187282 0.788086 127 102 117 
-0.172852 -0.187736 0.793945 125 103 114 
-0.172852 -0.187944 0.799805 124 103 112 
-0.172852 -0.188470 0.805664 123 105 110 
-0.172852 -0.189544 0.811523 121 107 109 
-0.172512 -0.190430 0.817383 120 108 108 
-0.167895 -0.190430 0.823242 119 110 106 
-0.166992 -0.190430 0.824289 119 110 105 
-0.166992 -0.184829 0.776367 130 100 118 
-0.166992 -0.184570 0.774724 130 100 118 
-0.168547 -0.184570 0.782227 128 100 117 
-0.166992 -0.184570 0.777955 129 100 117 
-0.168531 -0.184570 0.788086 127 101 114 
-0.167274 -0.184570 0.793945 126 102 111 
-0.166992 -0.185033 0.799805 124 104 110 
-0.166992 -0.184570 0.795623 126 103 111 
-0.166992 -0.185748 0.805664 123 106 108 
-0.166992 -0.186727 0.811523 121 108 107 
-0.166992 -0.188184 0.817383 120 109 106 
-0.166992 -0.189947 0.823242 119 110 106 
-0.166307 -0.184570 0.776367 130 100 117 
-0.166164 -0.184570 0.799805 124 104 109 
-0.165010 -0.184570 0.805664 122 106 108 
-0.162900 -0.184570 0.811523 121 108 106 
-0.161133 -0.185142 0.817383 120 109 105 
-0.161133 -0.184570 0.815856 120 109 105 
-0.161133 -0.188540 0.823242 119 110 105 
-0.159206 -0.184570 0.817383 120 109 105 
-0.155273 -0.184570 0.819308 119 110 104 
-0.178711 -0.179299 0.758789 132 93 113 
-0.181392 -0.178711 0.758789 133 93 111 
-0.178711 -0.178711 0.757290 133 93 112 
-0.178711 -0.181562 0.764648 131 97 117 
-0.178711 -0.184017 0.770508 130 100 121 
-0.178711 -0.175304 0.752930 134 89 106 
-0.184430 -0.137695 0.752930 105 67 77 
-0.178711 -0.133827 0.752930 100 64 75 
-0.178711 -0.131836 0.754598 98 63 74 
-0.178711 -0.128554 0.758789 94 63 74 
-0.182434 -0.125977 0.764648 92 65 74 
-0.178711 -0.125977 0.762286 90 63 73 
-0.178711 -0.124649 0.764648 88 63 73 
-0.178711 -0.121218 0.770508 83 64 72 
-0.178711 -0.120117 0.772411 82 64 71 
-0.178711 -0.117414 0.776367 78 64 70 
-0.178711 -0.114258 0.780880 74 64 68 
-0.178711 -0.112203 0.782227 73 65 68 
-0.178711 -0.108398 0.784704 71 66 67 
-0.172852 -0.180020 0.758789 132 95 117 
-0.172852 -0.178711 0.754876 133 93 115 
-0.172852 -0.182039 0.764648 131 99 120 
-0.172852 -0.184228 0.770508 130 102 123 
-0.172852 -0.177043 0.752930 134 91 111 
-0.175211 -0.131836 0.752930 96 62 73 
-0.172852 -0.130984 0.752930 94 61 72 
-0.172852 -0.126625 0.758789 88 60 69 
-0.172852 -0.125977 0.759730 87 60 69 
-0.172852 -0.123469 0.764648 83 61 69 
-0.172852 -0.120258 0.770508 78 61 67 
-0.172852 -0.120117 0.770776 78 61 67 
-0.172852 -0.116719 0.776367 73 61 66 
-0.172852 -0.114258 0.779824 70 61 65 
-0.172852 -0.110322 0.782227 69 62 64 
-0.172852 -0.108398 0.783405 69 63 64 
-0.166992 -0.179927 0.758789 132 96 117 
-0.166992 -0.178711 0.754650 133 94 116 
-0.166992 -0.181703 0.764648 131 97 118 
-0.166992 -0.183620 0.770508 130 99 119 
-0.166992 -0.183656 0.782227 128 100 115 
-0.166992 -0.183724 0.788086 127 101 112 
-0.166992 -0.184396 0.793945 126 102 111 
-0.166992 -0.177444 0.752930 133 93 113 
-0.166992 -0.129860 0.752930 89 58 67 
-0.166992 -0.126260 0.758789 84 56 64 
-0.166992 -0.125977 0.759236 84 56 64 
-0.166992 -0.123302 0.764648 80 57 63 
-0.166992 -0.120357 0.770508 75 57 63 
-0.166992 -0.120117 0.770993 74 58 63 
-0.166992 -0.116796 0.776367 69 58 61 
-0.166992 -0.114258 0.779805 67 58 61 
-0.166992 -0.108829 0.782227 68 62 61 
-0.166992 -0.108398 0.782396 68 62 61 
-0.166992 -0.107694 0.782227 69 63 62 
-0.161133 -0.178798 0.758789 133 96 117 
-0.161133 -0.178711 0.758492 133 96 117 
-0.161133 -0.180222 0.764648 132 98 117 
-0.161133 -0.181471 0.770508 131 100 116 
-0.161133 -0.180092 0.776367 129 98 113 
-0.161133 -0.180054 0.782227 128 99 110 
-0.161133 -0.180058 0.788086 127 100 109 
-0.161133 -0.180346 0.793945 125 102 107 
-0.161133 -0.181132 0.799805 123 105 107 
-0.161133 -0.181696 0.805664 122 107 106 
-0.161133 -0.183215 0.811523 121 108 105 
-0.161133 -0.175627 0.752930 133 92 112 
-0.161133 -0.130831 0.752930 88 56 64 
-0.161133 -0.127423 0.758789 84 55 61 
-0.161133 -0.125977 0.761318 82 55 60 
-0.161133 -0.124377 0.764648 79 55 60 
-0.161133 -0.121633 0.770508 73 55 59 
-0.161133 -0.120117 0.773508 70 55 58 
-0.161133 -0.117792 0.776367 68 56 58 
-0.161133 -0.114258 0.779867 66 58 58 
-0.166400 -0.108398 0.782227 69 63 61 
-0.161133 -0.108398 0.780756 72 64 60 
-0.160889 -0.178711 0.758789 133 96 117 
-0.157636 -0.178711 0.764648 132 98 114 
-0.156656 -0.178711 0.770508 132 99 112 
-0.159756 -0.178711 0.776367 129 98 111 
-0.159575 -0.178711 0.782227 128 99 109 
-0.159344 -0.178711 0.788086 127 101 108 
-0.158889 -0.178711 0.793945 125 103 107 
-0.158132 -0.178711 0.799805 123 105 105 
-0.156780 -0.178711 0.805664 121 107 105 
-0.155273 -0.179318 0.811523 120 109 104 
-0.155273 -0.178711 0.810030 120 109 104 
-0.155273 -0.182982 0.817383 119 110 104 
-0.155273 -0.172897 0.752930 134 92 109 
-0.155273 -0.175092 0.758789 133 95 110 
-0.155273 -0.176750 0.764648 132 96 110 
-0.155273 -0.177309 0.770508 131 98 110 
-0.155273 -0.174334 0.776367 128 95 104 
-0.155273 -0.173944 0.782227 126 96 103 
-0.155273 -0.174027 0.788086 124 99 103 
-0.155273 -0.174950 0.793945 123 102 104 
-0.155273 -0.175411 0.799805 122 105 104 
-0.155273 -0.177111 0.805664 121 108 104 
-0.155273 -0.134371 0.752930 90 58 63 
-0.158793 -0.131836 0.752930 89 56 63 
-0.155273 -0.131836 0.755758 86 57 62 
-0.155273 -0.130163 0.758789 84 57 60 
-0.155273 -0.126823 0.764648 78 55 57 
-0.156900 -0.125977 0.764648 78 55 58 
-0.155273 -0.125977 0.766060 77 55 57 
-0.155273 -0.123567 0.770508 72 54 55 
-0.155273 -0.120117 0.775792 69 55 55 
-0.155273 -0.119334 0.776367 69 56 55 
-0.155273 -0.114258 0.779454 71 61 58 
-0.153774 -0.178711 0.811523 120 109 104 
-0.149414 -0.182523 0.817383 119 110 104 
-0.149414 -0.178711 0.814152 119 109 103 
-0.155210 -0.172852 0.752930 134 92 109 
-0.152549 -0.172852 0.758789 132 93 105 
-0.151368 -0.172852 0.764648 130 93 103 
-0.151222 -0.172852 0.770508 128 94 102 
-0.154103 -0.172852 0.776367 127 95 102 
-0.154213 -0.172852 0.782227 126 97 102 
-0.154026 -0.172852 0.788086 124 99 102 
-0.153124 -0.172852 0.793945 123 103 103 
-0.152364 -0.172852 0.799805 122 106 103 
-0.150022 -0.172852 0.805664 120 108 102 
-0.149414 -0.176197 0.811523 119 109 103 
-0.149414 -0.172852 0.806770 120 108 102 
-0.150629 -0.166992 0.752930 127 83 92 
-0.149414 -0.168709 0.758789 127 87 95 
-0.149414 -0.166992 0.755274 126 83 92 
-0.149414 -0.169747 0.764648 126 89 96 
-0.149414 -0.169884 0.770508 125 91 96 
-0.150318 -0.166992 0.776367 121 91 93 
-0.149414 -0.166992 0.774299 122 90 92 
-0.150435 -0.166992 0.782227 121 94 95 
-0.149815 -0.166992 0.788086 121 99 97 
-0.149414 -0.167377 0.793945 121 103 99 
-0.149414 -0.166992 0.791735 121 101 99 
-0.149414 -0.169116 0.799805 121 106 101 
-0.149414 -0.172147 0.805664 120 108 102 
-0.149414 -0.163969 0.752930 122 78 85 
-0.149414 -0.164253 0.776367 117 89 89 
-0.149414 -0.164748 0.782227 118 93 92 
-0.149414 -0.166091 0.788086 120 98 96 
-0.149414 -0.144306 0.752930 92 64 64 
-0.149593 -0.143555 0.752930 92 64 64 
-0.149414 -0.143555 0.753175 91 64 64 
-0.152031 -0.137695 0.752930 91 62 64 
-0.149414 -0.137695 0.757057 89 65 65 
-0.149414 -0.136258 0.758789 87 64 64 
-0.152698 -0.131836 0.758789 84 59 61 
-0.149414 -0.131836 0.763691 82 60 60 
-0.149414 -0.131328 0.764648 81 60 60 
-0.149414 -0.127971 0.770508 77 58 57 
-0.150989 -0.125977 0.770508 75 56 56 
-0.149414 -0.125977 0.772057 75 57 56 
-0.149414 -0.121322 0.776367 75 60 56 
-0.153102 -0.120117 0.776367 71 57 55 
-0.149414 -0.120117 0.777321 75 61 56 
-0.149414 -0.114258 0.778557 79 67 59 
-0.148199 -0.166992 0.758789 125 85 91 
-0.147784 -0.166992 0.764648 123 87 92 
-0.147363 -0.166992 0.770508 122 89 92 
-0.149010 -0.166992 0.793945 121 103 99 
-0.146650 -0.166992 0.799805 120 107 101 
-0.143555 -0.168529 0.805664 119 108 101 
-0.143555 -0.166992 0.803735 119 108 101 
-0.148505 -0.161133 0.752930 116 74 79 
-0.146113 -0.161133 0.758789 114 78 81 
-0.145427 -0.161133 0.764648 114 81 82 
-0.145186 -0.161133 0.770508 114 84 84 
-0.148295 -0.161133 0.776367 113 88 86 
-0.147259 -0.161133 0.782227 115 93 89 
-0.146406 -0.161133 0.788086 117 99 94 
-0.144746 -0.161133 0.793945 118 104 98 
-0.143555 -0.163743 0.799805 119 107 100 
-0.143555 -0.161133 0.796273 119 106 99 
-0.148039 -0.155273 0.752930 105 67 70 
-0.145132 -0.155273 0.758789 104 74 74 
-0.144297 -0.155273 0.764648 105 78 77 
-0.143583 -0.155273 0.770508 105 82 79 
-0.145539 -0.155273 0.776367 105 85 81 
-0.145612 -0.155273 0.782227 107 90 85 
-0.144013 -0.155273 0.788086 110 96 90 
-0.143555 -0.158885 0.793945 117 103 97 
-0.143555 -0.155273 0.789277 111 97 91 
-0.148416 -0.149414 0.752930 94 63 63 
-0.145190 -0.149414 0.758789 95 69 68 
-0.144140 -0.149414 0.764648 96 75 72 
-0.143555 -0.155169 0.770508 105 82 79 
-0.143555 -0.149414 0.766123 97 76 73 
-0.143589 -0.149414 0.776367 98 81 77 
-0.143555 -0.149414 0.776276 98 81 77 
-0.143841 -0.149414 0.782227 101 86 80 
-0.143555 -0.153952 0.788086 109 95 89 
-0.143555 -0.149414 0.782999 101 87 81 
-0.146196 -0.143555 0.758789 90 68 66 
-0.145078 -0.143555 0.764648 91 71 69 
-0.143555 -0.143555 0.768034 91 73 70 
-0.143555 -0.149364 0.776367 98 81 77 
-0.143555 -0.148012 0.782227 99 85 79 
-0.148549 -0.137695 0.758789 88 66 65 
-0.145519 -0.137695 0.764648 87 68 66 
-0.143555 -0.138511 0.770508 88 71 68 
-0.143750 -0.137695 0.770508 88 71 67 
-0.143555 -0.137695 0.770874 88 71 67 
-0.148862 -0.131836 0.764648 81 61 60 
-0.146976 -0.131836 0.770508 82 63 61 
-0.143555 -0.131836 0.774967 85 68 63 
-0.143555 -0.125977 0.775850 82 65 59 
-0.143555 -0.124727 0.776367 83 66 59 
-0.143555 -0.120117 0.778011 83 69 60 
-0.141789 -0.149414 0.770508 99 79 76 
-0.140588 -0.149414 0.788086 106 93 86 
-0.142277 -0.143555 0.770508 92 75 71 
-0.138551 -0.143555 0.776367 97 80 75 
-0.138880 -0.137695 0.776367 92 76 70 
-0.137695 -0.137695 0.777645 93 78 72 
-0.141558 -0.131836 0.776367 87 71 65 
-0.137695 -0.131836 0.778485 93 77 68 
-0.142513 -0.125977 0.776367 84 67 60 
-0.137695 -0.125977 0.778484 92 75 65 
-0.178711 -0.172852 0.749566 136 87 103 
-0.178711 -0.169614 0.747070 136 85 98 
-0.182241 -0.166992 0.747070 135 82 94 
-0.178711 -0.166992 0.745191 136 82 94 
-0.178711 -0.161133 0.742778 131 77 86 
-0.178711 -0.155434 0.741211 125 70 77 
-0.178778 -0.155273 0.741211 125 70 77 
-0.178711 -0.155273 0.741165 125 70 77 
-0.178711 -0.155003 0.741211 125 70 76 
-0.183998 -0.149414 0.747070 117 71 79 
-0.178711 -0.149414 0.742366 118 67 74 
-0.181546 -0.143555 0.747070 111 66 75 
-0.178711 -0.143555 0.744988 111 65 74 
-0.178711 -0.140762 0.747070 108 64 74 
-0.178711 -0.137695 0.749703 104 65 76 
-0.172852 -0.172852 0.747903 135 87 104 
-0.172852 -0.171769 0.747070 136 87 103 
-0.172852 -0.166992 0.743031 138 83 95 
-0.172852 -0.162443 0.741211 134 77 87 
-0.174051 -0.161133 0.741211 133 76 85 
-0.172852 -0.161133 0.740714 133 76 85 
-0.172852 -0.155273 0.740383 126 72 79 
-0.174821 -0.149414 0.741211 118 67 74 
-0.172852 -0.149414 0.740596 118 66 74 
-0.172852 -0.147918 0.741211 116 66 74 
-0.172852 -0.143555 0.743273 110 64 73 
-0.172852 -0.137792 0.747070 103 63 74 
-0.172852 -0.137695 0.747122 103 63 74 
-0.172852 -0.131836 0.751656 95 61 72 
-0.166992 -0.173140 0.747070 135 86 104 
-0.168802 -0.172852 0.747070 135 86 104 
-0.166992 -0.172852 0.746631 135 86 104 
-0.166992 -0.166992 0.743315 137 84 97 
-0.166992 -0.161727 0.741211 135 80 89 
-0.166992 -0.161133 0.740979 134 80 88 
-0.166992 -0.155273 0.740248 126 72 78 
-0.166992 -0.149414 0.740391 117 66 73 
-0.166992 -0.147017 0.741211 113 64 73 
-0.166992 -0.143555 0.742459 108 62 71 
-0.172663 -0.137695 0.747070 103 63 74 
-0.166992 -0.137695 0.745227 100 60 71 
-0.166992 -0.135683 0.747070 97 60 70 
-0.166992 -0.131836 0.750242 92 58 68 
-0.165270 -0.172852 0.747070 135 86 105 
-0.161133 -0.172852 0.748208 134 88 106 
-0.161133 -0.171114 0.747070 133 86 103 
-0.161133 -0.166992 0.744284 133 82 96 
-0.165717 -0.161133 0.741211 134 79 88 
-0.161133 -0.161133 0.742163 131 78 87 
-0.162662 -0.155273 0.741211 124 71 77 
-0.161133 -0.155273 0.741591 123 70 77 
-0.162965 -0.149414 0.741211 115 64 72 
-0.161133 -0.149414 0.741649 114 64 71 
-0.161133 -0.143555 0.742906 105 60 68 
-0.161133 -0.137695 0.745666 97 58 67 
-0.161133 -0.136030 0.747070 95 57 67 
-0.161133 -0.131836 0.751312 90 56 65 
-0.155273 -0.172852 0.752824 134 92 109 
-0.155273 -0.167070 0.747070 131 83 95 
-0.155273 -0.166992 0.747001 131 83 95 
-0.155273 -0.161133 0.745013 125 74 82 
-0.155273 -0.155273 0.744512 117 67 73 
-0.155273 -0.149414 0.744728 109 63 67 
-0.155273 -0.143555 0.746420 101 60 66 
-0.155273 -0.142284 0.747070 99 60 65 
-0.158565 -0.137695 0.747070 96 58 66 
-0.155273 -0.137695 0.749434 94 59 64 
-0.155206 -0.166992 0.747070 131 83 95 
-0.152854 -0.161133 0.747070 122 73 81 
-0.149414 -0.161133 0.751018 118 73 79 
-0.152473 -0.155273 0.747070 112 66 71 
-0.149414 -0.155273 0.750455 106 66 69 
-0.152912 -0.149414 0.747070 104 62 65 
-0.149414 -0.149414 0.751234 96 62 63 
-0.154579 -0.143555 0.747070 100 61 66 
