ply
format ascii 1.0
comment Created by Open3D
obj_info Generated by CloudCompare!
element vertex 583
property float x
property float y
property float z
property uchar red
property uchar green
property uchar blue
end_header
0.102539 -0.240588 0.846680 140 101 95 
0.099028 -0.237305 0.846680 139 100 93 
0.102539 -0.237988 0.852539 131 91 86 
0.101668 -0.237305 0.852539 130 91 86 
0.102539 -0.237305 0.853720 128 89 85 
0.096680 -0.233929 0.846680 139 98 92 
0.096680 -0.231498 0.852539 129 90 85 
0.102539 -0.232795 0.858398 120 82 79 
0.100490 -0.231445 0.858398 120 84 80 
0.096680 -0.231445 0.852675 129 89 85 
0.102539 -0.231445 0.861725 113 80 77 
0.096680 -0.227600 0.858398 117 84 80 
0.102539 -0.230154 0.864258 108 79 75 
0.096680 -0.226358 0.864258 109 87 78 
0.102539 -0.228846 0.870117 103 85 76 
0.096680 -0.227123 0.870117 109 96 84 
0.108398 -0.244672 0.846680 140 104 97 
0.106329 -0.243164 0.846680 141 103 96 
0.108398 -0.243208 0.852539 133 95 90 
0.108347 -0.243164 0.852539 133 95 90 
0.108398 -0.243164 0.852621 133 95 90 
0.108398 -0.237305 0.857879 124 84 80 
0.108398 -0.235463 0.858398 122 82 79 
0.108398 -0.232234 0.864258 111 78 74 
0.107047 -0.231445 0.864258 110 78 74 
0.108398 -0.232481 0.870117 102 79 73 
0.106514 -0.231445 0.870117 102 81 74 
0.114258 -0.249533 0.846680 140 113 105 
0.113325 -0.249023 0.846680 140 112 104 
0.114258 -0.249023 0.848601 139 111 103 
0.114258 -0.247201 0.852539 136 103 97 
0.114258 -0.243997 0.858398 128 92 87 
0.113158 -0.243164 0.858398 127 90 86 
0.114258 -0.243164 0.860040 125 89 85 
0.109453 -0.237305 0.858398 123 83 80 
0.114258 -0.237305 0.862868 118 81 77 
0.114258 -0.236489 0.864258 115 80 76 
0.114258 -0.235758 0.870117 107 80 76 
0.114258 -0.233282 0.875977 98 83 75 
0.120117 -0.250888 0.846680 140 118 109 
0.120117 -0.250175 0.852539 136 109 102 
0.117216 -0.249023 0.852539 136 107 101 
0.120117 -0.249023 0.855787 133 104 99 
0.120117 -0.246986 0.858398 130 98 93 
0.120117 -0.243164 0.862217 123 89 84 
0.120117 -0.241137 0.864258 120 85 81 
0.114957 -0.237305 0.864258 116 80 77 
0.120117 -0.237795 0.870117 110 81 77 
0.117887 -0.237305 0.870117 109 81 78 
0.120117 -0.237305 0.872711 106 82 78 
0.120117 -0.236606 0.875977 102 83 78 
0.125977 -0.251506 0.846680 138 120 111 
0.125977 -0.252166 0.852539 135 114 108 
0.125977 -0.250379 0.858398 131 105 99 
0.122776 -0.249023 0.858398 131 102 97 
0.125977 -0.249023 0.861973 128 100 95 
0.125977 -0.247029 0.864258 124 94 90 
0.122472 -0.243164 0.864258 121 87 83 
0.125977 -0.243164 0.868255 117 87 83 
0.125977 -0.242027 0.870117 114 86 82 
0.125977 -0.240025 0.875977 107 88 83 
0.121118 -0.237305 0.875977 103 84 79 
0.125977 -0.239605 0.881836 106 98 89 
0.131836 -0.251139 0.846680 137 122 112 
0.131836 -0.251779 0.852539 133 116 109 
0.131836 -0.253399 0.858398 131 113 109 
0.131836 -0.250208 0.864258 125 98 95 
0.128929 -0.249023 0.864258 125 96 93 
0.131836 -0.249023 0.865820 123 95 92 
0.131836 -0.246041 0.870117 118 91 87 
0.127482 -0.243164 0.870117 115 87 83 
0.131836 -0.243979 0.875977 111 93 87 
0.130449 -0.243164 0.875977 110 93 87 
0.131836 -0.243164 0.880534 111 100 92 
0.131836 -0.243164 0.883965 112 106 96 
0.131836 -0.242864 0.881836 110 102 93 
0.137695 -0.250273 0.846680 136 125 113 
0.137695 -0.251724 0.852539 132 121 112 
0.137695 -0.251798 0.858398 130 112 106 
0.137695 -0.252524 0.864258 128 111 106 
0.137695 -0.249485 0.870117 122 98 94 
0.137213 -0.249023 0.870117 122 96 93 
0.137695 -0.249023 0.870495 121 97 93 
0.137695 -0.245902 0.875977 114 94 89 
0.137695 -0.245342 0.881836 113 103 94 
0.132461 -0.243164 0.881836 110 102 94 
0.141626 -0.249023 0.846680 136 127 115 
0.143555 -0.251213 0.852539 131 122 111 
0.143555 -0.249023 0.847976 135 127 114 
0.143555 -0.252535 0.858398 129 118 110 
0.143305 -0.249023 0.864258 129 104 97 
0.143555 -0.249023 0.864048 129 105 97 
0.143555 -0.253733 0.870117 124 113 107 
0.143555 -0.249023 0.864619 128 104 97 
0.143555 -0.249023 0.873978 119 98 93 
0.143555 -0.246803 0.846680 137 125 111 
0.143555 -0.248753 0.864258 129 104 96 
0.143555 -0.248319 0.875977 116 96 92 
0.143555 -0.247947 0.881836 115 105 96 
0.143555 -0.247606 0.887695 117 113 101 
0.143555 -0.241673 0.852539 137 114 100 
0.140960 -0.237305 0.852539 137 106 93 
0.143555 -0.237305 0.848564 142 115 100 
0.143555 -0.237305 0.855613 133 104 91 
0.143555 -0.235463 0.846680 144 118 103 
0.141097 -0.231445 0.846680 144 114 100 
0.141084 -0.231445 0.852539 138 107 93 
0.143555 -0.231445 0.855957 135 105 91 
0.143555 -0.226623 0.846680 144 113 102 
0.143555 -0.228032 0.852539 139 109 96 
0.149414 -0.254901 0.870117 124 116 110 
0.148710 -0.254883 0.870117 124 116 110 
0.149414 -0.254883 0.869832 124 116 110 
0.149414 -0.254883 0.870229 123 116 110 
0.148522 -0.249023 0.852539 131 124 112 
0.149414 -0.251807 0.858398 128 120 110 
0.149414 -0.249023 0.853474 131 123 112 
0.149414 -0.252674 0.864258 127 115 108 
0.143893 -0.249023 0.864258 129 105 97 
0.149414 -0.251985 0.875977 120 106 100 
0.144893 -0.249023 0.875977 117 97 93 
0.149414 -0.249459 0.881836 116 106 98 
0.147902 -0.249023 0.881836 116 105 97 
0.147987 -0.249023 0.887695 118 114 102 
0.149193 -0.243164 0.846680 138 130 114 
0.144606 -0.243164 0.852539 137 117 102 
0.149414 -0.243900 0.858398 134 114 100 
0.147884 -0.243164 0.858398 134 110 97 
0.149414 -0.243164 0.860073 132 110 97 
0.144572 -0.237305 0.846680 144 120 104 
0.144739 -0.237305 0.858398 130 102 89 
0.149414 -0.237305 0.862245 128 103 90 
0.144404 -0.231445 0.858398 133 103 89 
0.149414 -0.231445 0.862775 129 104 89 
0.143717 -0.225586 0.846680 143 112 102 
0.144069 -0.225586 0.852539 138 109 97 
0.146384 -0.225586 0.858398 133 108 93 
0.149414 -0.225586 0.862483 130 109 92 
0.144916 -0.219727 0.846680 142 112 103 
0.147505 -0.219727 0.852539 137 113 99 
0.148118 -0.219727 0.858398 131 110 93 
0.149414 -0.219727 0.859791 130 111 93 
0.148669 -0.213867 0.846680 137 113 101 
0.149414 -0.214994 0.852539 134 114 98 
0.149414 -0.213867 0.849896 135 113 99 
0.149414 -0.218077 0.858398 131 112 94 
0.149414 -0.213147 0.846680 137 113 101 
0.149590 -0.254883 0.870117 123 116 110 
0.152766 -0.249023 0.858398 129 121 110 
0.155273 -0.251922 0.864258 126 117 108 
0.155273 -0.249023 0.861419 128 119 108 
0.152128 -0.249023 0.870117 126 106 98 
0.155273 -0.249023 0.867024 127 113 102 
0.155273 -0.252698 0.875977 122 111 103 
0.155273 -0.249023 0.873346 123 105 98 
0.155273 -0.247390 0.864258 128 114 102 
0.150379 -0.243164 0.864258 128 103 92 
0.155273 -0.246622 0.870117 126 107 97 
0.155273 -0.243164 0.867871 127 105 94 
0.150669 -0.237305 0.864258 127 104 90 
0.155273 -0.237305 0.869091 126 106 90 
0.150977 -0.231445 0.864258 129 105 90 
0.155273 -0.231932 0.870117 126 107 90 
0.155115 -0.231445 0.870117 126 107 90 
0.155273 -0.231445 0.870250 126 107 90 
0.151776 -0.225586 0.864258 129 110 93 
0.155273 -0.228101 0.870117 128 112 93 
0.155273 -0.225586 0.869900 130 116 95 
0.155273 -0.221678 0.864258 129 115 94 
0.155273 -0.219727 0.862584 129 116 95 
0.150124 -0.213867 0.852539 133 114 97 
0.155236 -0.213867 0.858398 128 117 94 
0.155273 -0.213867 0.858452 128 117 94 
0.155273 -0.208803 0.846680 133 113 99 
0.154971 -0.208008 0.852539 127 114 92 
0.155273 -0.208008 0.850981 129 114 94 
0.155273 -0.213830 0.858398 128 117 94 
0.155273 -0.208008 0.852920 127 115 92 
0.155273 -0.207738 0.852539 127 114 92 
0.158296 -0.249023 0.864258 128 119 108 
0.161133 -0.249598 0.870117 126 111 101 
0.160684 -0.249023 0.870117 126 111 100 
0.161133 -0.249023 0.869590 126 112 101 
0.161133 -0.248789 0.870117 126 111 100 
0.157730 -0.243164 0.870117 126 107 95 
0.161133 -0.243164 0.873119 125 109 96 
0.156613 -0.237305 0.870117 126 107 91 
0.161133 -0.237305 0.874238 126 113 94 
0.161133 -0.231445 0.874540 127 115 93 
0.158839 -0.219727 0.864258 129 116 94 
0.158018 -0.208008 0.846680 131 115 97 
0.161133 -0.208008 0.853676 127 115 92 
0.161133 -0.207151 0.846680 128 117 96 
0.161133 -0.206677 0.852539 127 115 91 
0.161656 -0.249023 0.870117 126 112 101 
0.166992 -0.237305 0.875734 128 116 96 
0.166992 -0.211473 0.846680 125 116 95 
0.163486 -0.208008 0.846680 126 116 95 
0.162731 -0.208008 0.852539 127 115 92 
0.167791 -0.237305 0.875977 128 117 96 
0.084961 -0.209693 0.858398 111 96 84 
0.083976 -0.208008 0.858398 110 98 84 
0.084961 -0.208008 0.853561 118 96 87 
0.084961 -0.212972 0.864258 108 101 86 
0.084961 -0.207126 0.852539 119 96 87 
0.083771 -0.202148 0.852539 115 97 86 
0.084961 -0.202148 0.847658 122 97 90 
0.084961 -0.199591 0.846680 122 98 90 
0.084624 -0.196289 0.846680 119 100 90 
0.090820 -0.226382 0.846680 139 98 95 
0.090408 -0.225586 0.846680 138 98 95 
0.090820 -0.225586 0.848597 135 96 93 
0.088453 -0.219727 0.846680 133 94 92 
0.090820 -0.223524 0.852539 127 91 87 
0.089115 -0.219727 0.852539 125 92 88 
0.090820 -0.221430 0.858398 117 91 84 
0.089977 -0.219727 0.858398 117 92 84 
0.090820 -0.221577 0.864258 111 95 84 
0.089455 -0.219727 0.864258 111 96 84 
0.087208 -0.213867 0.846680 131 95 91 
0.087509 -0.213867 0.852539 123 93 88 
0.087084 -0.213867 0.858398 114 94 85 
0.085516 -0.213867 0.864258 108 100 85 
0.085770 -0.208008 0.846680 129 97 92 
0.085161 -0.208008 0.852539 119 96 87 
0.085216 -0.202148 0.846680 123 97 91 
0.094604 -0.231445 0.846680 138 98 93 
0.096640 -0.231445 0.852539 129 90 85 
0.092794 -0.225586 0.852539 127 90 86 
0.094697 -0.225586 0.858398 115 85 80 
0.095502 -0.225586 0.864258 109 88 79 
0.094730 -0.225586 0.870117 109 97 84 
0.102539 -0.238342 0.823242 161 146 129 
0.101153 -0.237305 0.823242 162 145 129 
0.102539 -0.237305 0.821833 161 148 130 
0.102539 -0.241544 0.829102 159 134 121 
0.097537 -0.237305 0.829102 162 133 121 
0.102539 -0.242608 0.834961 154 123 112 
0.096680 -0.237457 0.834961 156 121 111 
0.096680 -0.237305 0.833782 157 123 113 
0.102539 -0.242010 0.840820 148 113 103 
0.096680 -0.237909 0.840820 147 109 101 
0.096680 -0.237305 0.842224 146 107 99 
0.102539 -0.233054 0.817383 160 154 135 
0.099842 -0.231445 0.817383 162 153 136 
0.102539 -0.231445 0.815836 159 155 136 
0.096680 -0.233212 0.823242 165 143 131 
0.096680 -0.231445 0.820321 165 148 135 
0.096680 -0.236407 0.829102 162 133 121 
0.102539 -0.226143 0.811523 156 159 140 
0.101885 -0.225586 0.811523 158 159 141 
0.102539 -0.225586 0.811149 156 159 140 
0.096680 -0.228629 0.817383 166 153 140 
0.096680 -0.225586 0.815319 165 157 143 
0.101188 -0.219727 0.811523 157 159 143 
0.102539 -0.219727 0.810828 155 158 142 
0.096680 -0.219727 0.813949 161 158 146 
0.101748 -0.213867 0.811523 152 156 143 
0.102539 -0.213867 0.811079 152 156 142 
0.098892 -0.213867 0.817383 152 148 143 
0.096680 -0.215124 0.817383 155 149 143 
0.096680 -0.213867 0.819830 152 143 140 
0.102539 -0.213420 0.811523 151 155 142 
0.102539 -0.210348 0.817383 147 147 141 
0.097355 -0.208008 0.823242 145 137 136 
0.096680 -0.209399 0.823242 147 137 136 
0.102539 -0.208008 0.818834 143 143 139 
0.096680 -0.208008 0.824037 145 135 134 
0.102539 -0.202282 0.823242 136 134 131 
0.102539 -0.202148 0.823339 136 133 131 
0.096680 -0.202148 0.827875 138 127 127 
0.098469 -0.196289 0.829102 131 122 121 
0.096680 -0.199771 0.829102 135 124 124 
0.102539 -0.196289 0.826004 130 125 124 
0.096680 -0.196289 0.830337 131 121 120 
0.100659 -0.190430 0.829102 126 118 116 
0.102539 -0.190430 0.828106 126 119 117 
0.096680 -0.190430 0.830995 128 117 114 
0.101991 -0.184570 0.829102 124 116 112 
0.102539 -0.184570 0.828871 124 116 112 
0.096680 -0.184570 0.830910 126 116 110 
0.108398 -0.244125 0.829102 156 139 122 
0.105736 -0.243164 0.829102 157 136 121 
0.108398 -0.243164 0.826784 156 142 125 
0.108398 -0.246009 0.834961 152 127 115 
0.103357 -0.243164 0.834961 153 123 112 
0.108398 -0.246248 0.840820 147 116 106 
0.103961 -0.243164 0.840820 147 114 104 
0.108398 -0.240693 0.823242 155 147 128 
0.108398 -0.237305 0.819176 153 150 130 
0.108398 -0.235691 0.817383 151 151 131 
0.108398 -0.231445 0.813018 147 151 131 
0.108398 -0.229244 0.811523 146 151 131 
0.108398 -0.225586 0.809496 145 152 132 
0.108398 -0.219727 0.808946 149 155 136 
0.108398 -0.213867 0.811230 150 154 140 
0.108398 -0.213530 0.811523 150 153 140 
0.105601 -0.208008 0.817383 143 145 138 
0.108398 -0.208008 0.816258 142 145 137 
0.108398 -0.206021 0.817383 140 142 135 
0.102719 -0.202148 0.823242 136 134 131 
0.108398 -0.202148 0.819977 135 136 131 
0.106665 -0.196289 0.823242 129 128 125 
0.108398 -0.196289 0.822233 129 128 125 
0.108398 -0.193861 0.823242 127 125 122 
0.108398 -0.190430 0.824802 125 122 118 
0.108398 -0.184570 0.826448 123 117 113 
0.114258 -0.249292 0.840820 145 123 112 
0.113460 -0.249023 0.840820 145 122 112 
0.114258 -0.249023 0.839552 146 125 114 
0.114258 -0.245241 0.829102 151 140 123 
0.114258 -0.243164 0.824889 151 146 127 
0.114258 -0.247591 0.834961 150 132 119 
0.114258 -0.242026 0.823242 150 147 128 
0.114258 -0.237305 0.817651 149 154 134 
0.114258 -0.237027 0.817383 149 154 134 
0.114258 -0.231445 0.811543 149 159 137 
0.114258 -0.231417 0.811523 149 159 137 
0.114258 -0.225586 0.808439 147 158 136 
0.114258 -0.219727 0.807816 147 156 136 
0.114258 -0.213867 0.809675 148 153 137 
0.114258 -0.211658 0.811523 146 150 136 
0.114258 -0.208008 0.814728 141 145 134 
0.114258 -0.204092 0.817383 137 139 131 
0.114258 -0.202148 0.819043 135 135 129 
0.114258 -0.196289 0.820491 129 128 123 
0.112305 -0.190430 0.823242 125 122 118 
0.114258 -0.190430 0.822662 124 122 118 
0.114258 -0.187362 0.823242 123 120 115 
0.114258 -0.184570 0.823721 122 118 113 
0.120117 -0.250294 0.840820 143 126 115 
0.120117 -0.249023 0.837132 145 131 119 
0.120117 -0.245285 0.829102 148 141 124 
0.120117 -0.243164 0.825122 148 148 129 
0.120117 -0.247901 0.834961 147 134 120 
0.120117 -0.237816 0.817383 150 159 137 
0.115745 -0.237305 0.817383 150 156 135 
0.120117 -0.237305 0.816559 150 160 138 
0.120117 -0.241771 0.823242 148 150 131 
0.120117 -0.232626 0.811523 151 163 138 
0.114343 -0.231445 0.811523 149 159 137 
0.120117 -0.231445 0.810534 151 164 138 
0.120117 -0.225586 0.807849 150 163 138 
0.120117 -0.219727 0.807353 149 160 137 
0.120117 -0.213867 0.808862 147 153 135 
0.120117 -0.209972 0.811523 143 147 133 
0.120117 -0.208008 0.813256 141 144 132 
0.120117 -0.202742 0.817383 136 136 128 
0.120117 -0.202148 0.818366 135 134 127 
0.120117 -0.196289 0.820351 129 128 122 
0.120117 -0.190430 0.821270 125 122 117 
0.116313 -0.184570 0.823242 122 118 112 
0.120117 -0.184570 0.822498 121 118 112 
0.125977 -0.250314 0.840820 141 127 116 
0.125977 -0.249023 0.837022 145 131 118 
0.125977 -0.244973 0.829102 146 145 127 
0.125977 -0.243164 0.825767 147 149 129 
0.125977 -0.248022 0.834961 146 134 119 
0.125977 -0.238098 0.817383 149 159 135 
0.125977 -0.237305 0.816272 150 160 136 
0.125977 -0.241451 0.823242 148 152 132 
0.125977 -0.232922 0.811523 152 165 138 
0.125977 -0.231445 0.810207 152 165 138 
0.125977 -0.225586 0.807740 151 163 137 
0.125977 -0.219727 0.807510 149 158 135 
0.125977 -0.213867 0.808707 146 152 132 
0.125977 -0.209002 0.811523 141 144 130 
0.125977 -0.208008 0.812279 140 143 130 
0.123619 -0.202148 0.817383 135 134 127 
0.125977 -0.202148 0.817086 134 134 126 
0.125977 -0.201704 0.817383 134 133 126 
0.125977 -0.196289 0.820714 130 127 121 
0.125977 -0.190430 0.821125 125 122 116 
0.131836 -0.250523 0.840820 141 128 115 
0.131836 -0.249023 0.837836 143 133 119 
0.131836 -0.244376 0.829102 145 146 127 
0.131836 -0.243164 0.827019 146 148 128 
0.131836 -0.247042 0.834961 145 138 123 
0.131360 -0.237305 0.817383 147 158 133 
0.131836 -0.240815 0.823242 147 153 131 
0.131836 -0.237305 0.817493 147 158 133 
0.131836 -0.232226 0.811523 150 163 137 
0.131836 -0.231445 0.811008 150 162 137 
0.131836 -0.237213 0.817383 147 158 133 
0.131836 -0.225586 0.808523 148 159 134 
0.131836 -0.219727 0.808039 146 154 131 
0.131836 -0.213867 0.809568 142 147 128 
0.131836 -0.209636 0.811523 140 143 127 
0.131836 -0.208008 0.812829 139 140 127 
0.131836 -0.202148 0.816321 133 132 122 
0.131836 -0.200525 0.817383 132 130 121 
0.131836 -0.196289 0.820076 129 126 119 
0.131836 -0.190430 0.820458 125 121 114 
0.137695 -0.249604 0.840820 141 132 118 
0.137695 -0.249023 0.839686 141 133 119 
0.137695 -0.243679 0.829102 145 147 128 
0.137695 -0.243164 0.828382 145 148 129 
0.137695 -0.246473 0.834961 143 140 123 
0.137695 -0.239926 0.823242 146 153 131 
0.137695 -0.237305 0.819230 147 156 133 
0.133225 -0.231445 0.811523 150 162 137 
0.137695 -0.235667 0.817383 148 158 134 
0.137695 -0.231445 0.813703 149 159 135 
0.137695 -0.228164 0.811523 147 157 134 
0.137695 -0.225586 0.810508 145 154 133 
0.137695 -0.219727 0.809763 142 148 128 
0.137695 -0.213867 0.810794 138 142 125 
0.137695 -0.211740 0.811523 137 140 123 
0.137695 -0.208008 0.813763 135 135 122 
0.137695 -0.202148 0.816680 132 129 118 
0.137695 -0.200416 0.817383 131 127 117 
0.137695 -0.196289 0.819783 128 124 115 
0.137695 -0.190430 0.820685 123 119 110 
0.139242 -0.249023 0.840820 141 132 119 
0.139527 -0.243164 0.829102 145 147 128 
0.143555 -0.245161 0.834961 143 142 125 
0.143555 -0.243164 0.831479 144 146 127 
0.143555 -0.245587 0.840820 140 134 119 
0.143555 -0.238529 0.823242 144 151 128 
0.143555 -0.237305 0.821826 145 152 128 
0.143555 -0.241851 0.829102 145 148 128 
0.143555 -0.232366 0.817383 146 155 132 
0.143555 -0.231445 0.816770 146 154 132 
0.143555 -0.231445 0.841798 148 123 110 
0.139850 -0.225586 0.811523 144 152 132 
0.143555 -0.225586 0.813600 142 149 130 
0.143555 -0.228089 0.840820 148 122 111 
0.143139 -0.225586 0.840820 147 119 110 
0.143555 -0.225586 0.839509 148 121 112 
0.143555 -0.225586 0.843222 146 116 107 
0.141862 -0.219727 0.811523 138 144 127 
0.143555 -0.219727 0.812363 137 142 126 
0.143555 -0.224150 0.840820 147 118 110 
0.139071 -0.213867 0.811523 137 140 124 
0.143555 -0.213867 0.813755 134 136 122 
0.143555 -0.208008 0.815397 131 130 118 
0.143555 -0.202148 0.817334 128 125 113 
0.143555 -0.201992 0.817383 128 125 113 
0.143555 -0.196289 0.819736 125 121 111 
0.143555 -0.190430 0.821090 120 116 107 
0.146862 -0.243164 0.834961 144 142 125 
0.149414 -0.243836 0.840820 141 139 124 
0.149414 -0.243164 0.839105 142 140 125 
0.149414 -0.243164 0.846310 138 131 115 
0.145916 -0.237305 0.823242 143 150 127 
0.149414 -0.239200 0.829102 142 145 124 
0.149414 -0.237305 0.826743 142 146 125 
0.149414 -0.239306 0.834961 144 140 124 
0.149414 -0.239155 0.840820 144 133 118 
0.148675 -0.237305 0.840820 145 129 114 
0.149414 -0.237305 0.839243 145 133 117 
0.144751 -0.231445 0.817383 146 154 132 
0.149414 -0.234645 0.823242 142 149 127 
0.149414 -0.231445 0.820671 143 149 129 
0.143796 -0.231445 0.840820 149 125 111 
0.149414 -0.231445 0.836458 149 137 122 
0.149414 -0.227176 0.817383 142 148 129 
0.149414 -0.225586 0.816737 141 147 129 
0.149414 -0.228225 0.834961 150 135 124 
0.145213 -0.225586 0.834961 150 127 119 
0.149414 -0.225586 0.832329 150 136 126 
0.149414 -0.219727 0.815353 135 139 125 
0.146776 -0.219727 0.834961 147 124 116 
0.149414 -0.219727 0.830048 147 131 123 
0.144322 -0.219727 0.840820 146 116 109 
0.149414 -0.213867 0.815685 130 132 119 
0.149414 -0.214879 0.834961 144 123 115 
0.148050 -0.213867 0.840820 142 114 107 
0.149414 -0.213867 0.836141 143 121 113 
0.149414 -0.208008 0.816854 127 126 115 
0.149414 -0.212857 0.840820 141 114 106 
0.149414 -0.206405 0.817383 127 125 113 
0.143709 -0.202148 0.817383 128 125 113 
0.149414 -0.202148 0.819460 126 122 111 
0.149414 -0.196289 0.820845 123 118 108 
0.149414 -0.190430 0.822502 120 116 107 
0.150133 -0.243164 0.840820 141 139 125 
0.150872 -0.237305 0.829102 142 143 123 
0.150324 -0.237305 0.834961 143 140 124 
0.153382 -0.231445 0.823242 142 146 126 
0.152337 -0.231445 0.829102 142 140 125 
0.151041 -0.231445 0.834961 145 137 123 
0.150581 -0.225586 0.817383 141 147 129 
0.154962 -0.225586 0.823242 137 141 125 
0.154397 -0.225586 0.829102 139 137 125 
0.152883 -0.219727 0.817383 134 137 124 
0.155273 -0.224920 0.823242 136 140 124 
0.155273 -0.219727 0.820886 133 135 122 
0.151401 -0.219727 0.829102 144 132 122 
0.155273 -0.219727 0.828130 137 131 120 
0.152595 -0.213867 0.817383 129 130 118 
0.155273 -0.213867 0.819957 128 129 117 
0.155273 -0.217613 0.829102 136 128 117 
0.149809 -0.213867 0.834961 143 122 115 
0.155273 -0.213867 0.830198 134 124 111 
0.150404 -0.208008 0.817383 127 125 114 
0.155273 -0.208008 0.820451 126 124 114 
0.155273 -0.210751 0.834961 136 120 108 
0.155273 -0.210736 0.840820 135 119 104 
0.155273 -0.202148 0.821517 123 120 109 
0.155273 -0.196289 0.822859 122 118 107 
0.155273 -0.193380 0.823242 121 117 108 
0.152914 -0.190430 0.823242 120 117 107 
0.157389 -0.219727 0.823242 132 133 120 
0.160064 -0.213867 0.823242 127 128 115 
0.157918 -0.213867 0.829102 130 124 111 
0.161087 -0.208008 0.823242 124 123 112 
0.161133 -0.211969 0.829102 125 122 110 
0.161133 -0.208008 0.823342 124 122 112 
0.161133 -0.208349 0.834961 128 118 102 
0.161133 -0.209094 0.840820 128 116 97 
0.161133 -0.208008 0.843738 128 117 97 
0.159316 -0.202148 0.823242 122 119 109 
0.161133 -0.202148 0.824245 122 119 109 
0.156383 -0.196289 0.823242 122 117 107 
0.161133 -0.196289 0.825046 121 118 107 
0.163723 -0.208008 0.829102 123 119 107 
0.166992 -0.208513 0.834961 121 116 102 
0.166992 -0.208008 0.834026 121 116 102 
0.164160 -0.208008 0.840820 125 115 97 
0.166992 -0.208008 0.836909 121 116 100 
0.166992 -0.208008 0.843070 123 115 96 
0.166992 -0.204971 0.829102 121 118 106 
0.166992 -0.202148 0.827352 121 118 108 
0.166992 -0.204184 0.840820 122 114 95 
0.167545 -0.208008 0.834961 120 116 101 
0.172852 -0.208008 0.841703 120 114 98 
0.170361 -0.202148 0.829102 120 117 106 
0.172852 -0.202770 0.834961 118 114 99 
0.172852 -0.202148 0.833559 119 114 101 
0.172852 -0.207606 0.840820 119 114 98 
0.173514 -0.202148 0.834961 118 114 99 
0.084961 -0.196289 0.845525 121 100 91 
0.084961 -0.190430 0.843562 122 106 95 
0.084961 -0.186397 0.840820 122 108 97 
0.090820 -0.231888 0.834961 154 116 109 
0.090469 -0.231445 0.834961 154 115 109 
0.090820 -0.231445 0.832734 156 119 112 
0.090820 -0.231445 0.837265 151 112 106 
0.090820 -0.229005 0.829102 160 124 118 
0.089353 -0.225586 0.829102 158 122 118 
0.090820 -0.225586 0.824458 162 133 127 
0.088984 -0.225586 0.834961 152 112 109 
0.090820 -0.229852 0.840820 147 106 101 
0.089146 -0.225586 0.840820 146 104 101 
0.090820 -0.223088 0.823242 162 135 131 
0.090318 -0.219727 0.823242 160 135 132 
0.090820 -0.219727 0.821294 160 140 136 
0.088637 -0.219727 0.829102 155 120 119 
0.087953 -0.219727 0.834961 149 109 108 
0.087665 -0.219727 0.840820 141 100 99 
0.090820 -0.214009 0.823242 153 135 134 
0.088386 -0.213867 0.829102 150 120 121 
0.090820 -0.213867 0.823276 153 135 134 
0.087899 -0.213867 0.834961 144 107 107 
0.087126 -0.213867 0.840820 138 98 98 
0.090066 -0.208008 0.829102 146 122 123 
0.090820 -0.208008 0.826598 146 128 128 
0.087464 -0.208008 0.834961 141 109 109 
0.086927 -0.208008 0.840820 136 101 99 
0.090820 -0.202763 0.829102 142 125 124 
0.088212 -0.202148 0.834961 138 113 111 
0.090820 -0.202148 0.829297 141 124 124 
0.086131 -0.202148 0.840820 132 103 99 
0.088962 -0.196289 0.834961 133 112 110 
0.090820 -0.196289 0.831206 134 119 117 
0.086354 -0.196289 0.840820 128 104 99 
0.089296 -0.190430 0.834961 130 113 109 
0.090820 -0.190430 0.832536 130 115 112 
0.086516 -0.190430 0.840820 126 108 100 
0.088991 -0.184570 0.834961 127 114 107 
0.090820 -0.184570 0.832589 129 115 109 
0.096524 -0.237305 0.834961 156 121 111 
0.096084 -0.237305 0.840820 147 109 101 
0.094627 -0.231445 0.823242 165 141 131 
0.091887 -0.231445 0.829102 161 126 119 
0.091719 -0.231445 0.840820 147 107 101 
0.094637 -0.225586 0.817383 166 152 141 
0.091242 -0.225586 0.823242 163 136 130 
0.092713 -0.219727 0.817383 161 149 142 
0.090910 -0.213867 0.823242 153 135 134 
0.091426 -0.202148 0.829102 141 125 124 
0.096680 -0.180980 0.829102 125 116 109 
