ply
format ascii 1.0
comment Created by Open3D
obj_info Generated by CloudCompare!
element vertex 496
property float x
property float y
property float z
property uchar red
property uchar green
property uchar blue
end_header
0.005265 -0.225586 1.016602 127 119 148 
0.002930 -0.226174 1.016602 127 119 148 
0.002930 -0.225586 1.014504 128 119 148 
0.008789 -0.226455 1.022461 125 121 147 
0.002930 -0.227694 1.022461 127 121 148 
0.008789 -0.225586 1.019470 125 120 147 
0.008789 -0.227728 1.028320 125 122 148 
0.007413 -0.219727 1.004883 128 116 146 
0.002930 -0.221197 1.004883 129 116 145 
0.002930 -0.219727 1.000793 130 115 145 
0.008789 -0.221658 1.010742 127 118 146 
0.002930 -0.223874 1.010742 128 118 147 
0.008789 -0.219727 1.005862 128 117 146 
0.008789 -0.223991 1.016602 126 119 147 
0.008674 -0.219727 1.028320 126 122 148 
0.002930 -0.223884 1.028320 126 122 148 
0.002930 -0.219727 1.024367 127 120 144 
0.008789 -0.219727 1.028404 126 122 148 
0.002948 -0.213867 0.993164 133 111 139 
0.002930 -0.213873 0.993164 133 111 139 
0.002930 -0.213867 0.993152 133 111 139 
0.008789 -0.215161 0.999023 130 115 143 
0.002930 -0.218356 0.999023 130 114 143 
0.008789 -0.213867 0.996015 131 114 143 
0.008789 -0.218978 1.004883 128 116 145 
0.008360 -0.213867 1.028320 125 118 139 
0.002930 -0.213867 1.024719 125 116 136 
0.008789 -0.213867 1.028695 125 118 139 
0.008789 -0.208120 0.987305 133 109 135 
0.008789 -0.208008 0.987121 133 109 135 
0.008789 -0.211820 0.993164 131 112 140 
0.005844 -0.208008 1.028320 122 111 127 
0.002930 -0.208008 1.025641 122 110 126 
0.008789 -0.208008 1.032275 121 113 130 
0.008789 -0.202150 0.981445 133 100 121 
0.002930 -0.203525 0.981445 133 100 119 
0.008789 -0.202148 0.981443 133 100 121 
0.002930 -0.202148 0.980264 132 98 116 
0.002930 -0.204653 1.028320 117 108 122 
0.008789 -0.205977 1.034180 118 113 129 
0.005829 -0.202148 1.034180 114 112 126 
0.002930 -0.202148 1.030979 114 109 123 
0.008789 -0.196289 0.977638 130 89 103 
0.002930 -0.196289 0.976328 128 86 98 
0.002930 -0.199034 1.034180 110 111 124 
0.004868 -0.190430 0.975586 119 79 86 
0.002930 -0.192535 0.975586 122 80 89 
0.002930 -0.190430 0.975239 118 77 84 
0.008789 -0.190430 0.976268 121 81 89 
0.002930 -0.188766 0.975586 114 76 82 
0.008789 -0.184570 0.977358 108 76 80 
0.002930 -0.184570 0.976622 105 72 76 
0.011106 -0.225586 1.022461 125 121 146 
0.013490 -0.225586 1.028320 124 122 146 
0.014648 -0.226712 1.034180 123 123 145 
0.010696 -0.225586 1.034180 124 124 149 
0.014648 -0.225586 1.030385 123 122 145 
0.012827 -0.219727 1.010742 127 118 145 
0.014648 -0.220320 1.016602 126 120 145 
0.014648 -0.219727 1.014394 126 119 145 
0.014648 -0.222668 1.022461 125 121 145 
0.014648 -0.223920 1.028320 124 122 146 
0.014648 -0.220931 1.034180 125 125 147 
0.014648 -0.219727 1.033249 125 125 147 
0.011174 -0.213867 0.999023 130 115 142 
0.014648 -0.215036 1.004883 129 117 142 
0.014648 -0.213867 1.002367 129 116 142 
0.014648 -0.217722 1.010742 127 119 144 
0.014648 -0.213867 1.029526 126 122 142 
0.008965 -0.208008 0.987305 133 109 135 
0.014648 -0.208291 0.993164 131 112 136 
0.014648 -0.208008 0.992626 131 112 136 
0.014648 -0.211545 0.999023 130 114 139 
0.014648 -0.212841 1.034180 125 122 141 
0.010545 -0.208008 1.034180 121 115 131 
0.008791 -0.202148 0.981445 133 100 121 
0.014648 -0.203153 0.987305 133 107 127 
0.014648 -0.202148 0.985916 133 105 125 
0.014648 -0.196551 0.981445 131 96 110 
0.014648 -0.196289 0.981228 131 96 109 
0.014648 -0.190430 0.980020 123 89 96 
0.014648 -0.184570 0.980466 114 85 88 
0.016579 -0.225586 1.034180 122 123 144 
0.015553 -0.219727 1.016602 125 120 145 
0.017693 -0.219727 1.022461 124 122 144 
0.020508 -0.220591 1.028320 122 123 143 
0.020508 -0.219727 1.026624 122 123 143 
0.020508 -0.219727 1.033585 122 125 143 
0.016428 -0.213867 1.004883 128 117 141 
0.018367 -0.213867 1.010742 126 118 140 
0.019037 -0.213867 1.016602 125 120 141 
0.019720 -0.213867 1.022461 124 122 141 
0.020508 -0.217311 1.028320 122 124 142 
0.015142 -0.213867 1.028320 126 122 141 
0.015099 -0.208008 0.993164 131 112 136 
0.019757 -0.208008 0.999023 128 114 134 
0.020508 -0.209645 1.004883 126 116 135 
0.020508 -0.208008 1.000493 127 115 134 
0.020508 -0.210861 1.010742 125 117 136 
0.020508 -0.210523 1.016602 125 120 138 
0.019385 -0.208008 1.022461 125 120 135 
0.020508 -0.208008 1.020298 125 121 136 
0.020508 -0.210677 1.028320 123 123 138 
0.020508 -0.208008 1.024006 124 122 136 
0.020508 -0.213325 1.034180 123 125 140 
0.015931 -0.202148 0.987305 132 106 125 
0.020508 -0.202414 0.993164 129 110 126 
0.020508 -0.202148 0.992740 129 110 126 
0.020508 -0.206739 0.999023 128 113 132 
0.020508 -0.206458 1.022461 124 121 133 
0.014871 -0.196289 0.981445 131 96 109 
0.019819 -0.196289 0.987305 129 101 112 
0.020508 -0.196289 0.988915 128 102 112 
0.016340 -0.190430 0.981445 123 91 99 
0.019460 -0.190430 0.987305 122 96 102 
0.020508 -0.190430 0.989449 122 98 103 
0.015663 -0.184570 0.981445 114 87 90 
0.018811 -0.184570 0.987305 114 93 94 
0.020508 -0.184967 0.993164 114 97 98 
0.020396 -0.184570 0.993164 113 97 97 
0.020508 -0.184570 0.993352 114 97 97 
0.021694 -0.219727 1.028320 122 123 142 
0.022686 -0.208008 1.004883 126 116 133 
0.022729 -0.208008 1.010742 125 117 134 
0.023390 -0.208008 1.016602 124 120 135 
0.024443 -0.208008 1.028320 121 124 134 
0.026367 -0.209614 1.034180 119 126 136 
0.026367 -0.208008 1.030704 120 125 134 
0.020800 -0.202148 0.993164 129 110 126 
0.022581 -0.202148 0.999023 127 110 123 
0.022623 -0.202148 1.004883 125 112 124 
0.023553 -0.202148 1.010742 123 115 126 
0.024843 -0.202148 1.016602 122 118 127 
0.026367 -0.203617 1.022461 120 122 130 
0.026367 -0.202148 1.019465 121 120 128 
0.026367 -0.205548 1.028320 120 124 132 
0.021674 -0.196289 0.993164 126 103 111 
0.023190 -0.196289 0.999023 123 105 111 
0.022942 -0.196289 1.004883 122 108 114 
0.024603 -0.196289 1.010742 122 113 118 
0.026355 -0.196289 1.016602 120 117 121 
0.026367 -0.196289 1.016624 120 117 121 
0.021469 -0.190430 0.993164 120 99 102 
0.023259 -0.190430 0.999023 118 102 104 
0.024248 -0.190430 1.004883 117 106 107 
0.026367 -0.193156 1.010742 119 113 116 
0.026367 -0.190430 1.008868 117 110 111 
0.026367 -0.196275 1.016602 120 117 121 
0.023108 -0.184570 0.999023 113 101 100 
0.024679 -0.184570 1.004883 112 106 104 
0.026367 -0.184570 1.007438 112 108 106 
0.029520 -0.208008 1.034180 119 126 133 
0.028595 -0.202148 1.022461 120 122 128 
0.028881 -0.202148 1.028320 119 124 128 
0.032227 -0.205861 1.034180 119 126 131 
0.032227 -0.202148 1.031012 119 125 129 
0.032227 -0.196868 1.022461 118 119 122 
0.032227 -0.196289 1.022186 118 119 122 
0.032227 -0.199241 1.028320 118 124 127 
0.027381 -0.190430 1.010742 117 112 113 
0.030954 -0.190430 1.016602 117 117 117 
0.032227 -0.190430 1.017763 117 117 117 
0.029138 -0.184570 1.010742 113 112 110 
0.032227 -0.187609 1.016602 116 117 116 
0.032227 -0.184570 1.014861 115 117 114 
0.032493 -0.196289 1.022461 118 119 122 
0.008789 -0.202466 1.040039 115 118 134 
0.008451 -0.202148 1.040039 115 118 134 
0.008789 -0.202148 1.040776 115 119 135 
0.004731 -0.196289 1.040039 111 118 132 
0.002930 -0.196289 1.037114 109 115 128 
0.008789 -0.197911 1.045898 114 126 142 
0.007305 -0.196289 1.045898 114 126 143 
0.002930 -0.194250 1.040039 110 119 132 
0.002930 -0.191993 1.045898 113 127 142 
0.014648 -0.212836 1.040039 124 124 143 
0.013782 -0.208008 1.040039 121 120 137 
0.014648 -0.208008 1.044167 120 123 139 
0.014648 -0.206845 1.045898 119 124 140 
0.012158 -0.202148 1.045898 116 125 141 
0.014648 -0.202281 1.051758 116 130 148 
0.014423 -0.202148 1.051758 116 130 149 
0.020508 -0.225722 1.040039 121 124 142 
0.020508 -0.225586 1.039706 121 124 142 
0.019663 -0.219727 1.040039 122 126 144 
0.020508 -0.219727 1.035764 122 125 143 
0.018839 -0.219727 1.045898 122 128 146 
0.015591 -0.213867 1.040039 124 125 144 
0.020508 -0.213867 1.034830 123 126 141 
0.017775 -0.213867 1.045898 122 128 145 
0.019054 -0.213867 1.051758 120 131 147 
0.015359 -0.208008 1.045898 120 124 141 
0.017700 -0.208008 1.051758 119 130 147 
0.020694 -0.225586 1.040039 121 124 142 
0.021781 -0.219727 1.040039 121 126 142 
0.024050 -0.219727 1.045898 120 127 141 
0.026367 -0.219727 1.048163 118 128 139 
0.026367 -0.216087 1.040039 119 127 138 
0.026367 -0.213867 1.038696 119 127 138 
0.026367 -0.218321 1.045898 119 128 139 
0.029558 -0.213867 1.040039 119 127 137 
0.032227 -0.208008 1.036273 118 126 132 
-0.035012 -0.190430 1.034180 104 96 105 
-0.032227 -0.189062 1.034180 105 98 107 
-0.032227 -0.187039 1.040039 105 101 111 
-0.026367 -0.188318 1.034180 106 102 112 
-0.026367 -0.186410 1.040039 106 106 116 
-0.020508 -0.190211 1.034180 107 104 115 
-0.020508 -0.188257 1.040039 108 108 119 
-0.014648 -0.191351 1.034180 109 107 118 
-0.019813 -0.190430 1.034180 107 104 115 
-0.014648 -0.190430 1.038147 110 112 123 
-0.014648 -0.189670 1.040039 110 114 124 
-0.014648 -0.190023 1.045898 112 117 129 
-0.009050 -0.190430 1.034180 111 111 123 
-0.008789 -0.190375 1.034180 111 112 123 
-0.008789 -0.187560 1.040039 113 119 131 
-0.008789 -0.188780 1.045898 115 123 137 
-0.002930 -0.193161 1.034180 108 112 124 
-0.008689 -0.190430 1.034180 111 111 123 
-0.002930 -0.190719 1.040039 112 121 134 
-0.003385 -0.190430 1.040039 112 121 133 
-0.002930 -0.190430 1.041112 112 122 135 
-0.002930 -0.188978 1.045898 116 127 141 
0.000942 -0.196289 1.034180 109 112 125 
-0.000212 -0.190430 1.045898 114 127 142 
-0.032227 -0.213895 1.022461 116 98 107 
-0.032248 -0.213867 1.022461 116 98 107 
-0.032227 -0.213867 1.022400 116 98 107 
-0.032227 -0.213867 1.022555 116 98 107 
-0.033751 -0.208008 1.022461 113 95 105 
-0.032227 -0.208008 1.018184 114 95 104 
-0.032227 -0.208008 1.024866 113 97 107 
-0.032227 -0.203011 1.016602 112 92 102 
-0.032354 -0.202148 1.016602 111 92 101 
-0.032227 -0.202148 1.016339 111 92 101 
-0.034412 -0.202148 1.022461 110 93 102 
-0.032227 -0.202148 1.024241 111 95 105 
-0.033100 -0.196289 1.016602 108 90 99 
-0.032227 -0.196289 1.015197 108 90 99 
-0.035938 -0.196289 1.022461 107 91 100 
-0.032227 -0.196289 1.026531 108 95 105 
-0.032372 -0.190430 1.016602 105 88 98 
-0.032227 -0.190430 1.016229 105 88 97 
-0.035193 -0.190430 1.022461 103 89 97 
-0.032227 -0.194517 1.028320 107 95 105 
-0.032227 -0.190430 1.032063 106 97 107 
-0.032227 -0.189557 1.016602 104 88 97 
-0.034726 -0.184570 1.022461 99 85 93 
-0.032227 -0.184570 1.017900 99 84 93 
-0.026367 -0.220701 1.022461 122 100 111 
-0.027510 -0.219727 1.022461 121 100 111 
-0.026367 -0.219727 1.020555 122 100 110 
-0.026367 -0.219727 1.024098 121 101 112 
-0.026367 -0.216105 1.016602 121 98 108 
-0.028721 -0.213867 1.016602 118 97 106 
-0.026367 -0.213867 1.013210 120 96 106 
-0.026367 -0.213867 1.023285 118 100 110 
-0.026367 -0.210441 1.010742 118 94 103 
-0.027477 -0.208008 1.010742 116 93 102 
-0.026367 -0.208008 1.007504 117 92 101 
-0.031368 -0.208008 1.016602 115 94 104 
-0.026367 -0.208008 1.022933 115 98 109 
-0.029080 -0.202148 1.010742 113 91 100 
-0.026367 -0.202148 1.005182 114 89 98 
-0.026367 -0.202148 1.022945 112 97 108 
-0.026367 -0.200359 1.004883 113 88 97 
-0.026715 -0.196289 1.004883 110 86 95 
-0.026367 -0.196289 1.003954 110 86 95 
-0.029785 -0.196289 1.010742 109 88 98 
-0.026367 -0.196289 1.024399 110 96 107 
-0.027626 -0.190430 1.004883 105 84 94 
-0.026367 -0.190430 1.002394 106 83 93 
-0.029956 -0.190430 1.010742 105 86 96 
-0.026367 -0.192213 1.028320 108 98 110 
-0.026367 -0.190430 1.030449 107 100 111 
-0.026738 -0.184570 1.004883 101 82 92 
-0.026367 -0.184570 1.004034 101 82 92 
-0.028929 -0.184570 1.010742 100 83 92 
-0.031512 -0.184570 1.016602 99 84 93 
-0.020508 -0.222267 1.016602 128 104 117 
-0.023759 -0.219727 1.016602 125 100 112 
-0.020508 -0.219727 1.011173 128 102 114 
-0.020508 -0.219727 1.023549 125 105 117 
-0.020508 -0.216674 1.004883 128 99 111 
-0.023113 -0.213867 1.004883 124 96 106 
-0.020508 -0.213867 1.000508 127 97 108 
-0.020508 -0.219433 1.010742 128 102 114 
-0.025236 -0.213867 1.010742 121 96 106 
-0.020508 -0.213867 1.022825 121 103 114 
-0.020508 -0.211103 0.999023 125 95 105 
-0.021789 -0.208008 0.999023 122 92 101 
-0.020508 -0.208008 0.996982 123 92 101 
-0.025553 -0.208008 1.004883 118 91 100 
-0.020508 -0.208008 1.022555 117 100 111 
-0.023821 -0.202148 0.999023 116 88 96 
-0.020508 -0.202148 0.994532 118 87 96 
-0.026242 -0.202148 1.004883 114 89 98 
-0.020508 -0.204788 1.022461 115 99 110 
-0.021854 -0.202148 1.022461 112 98 109 
-0.020508 -0.202148 1.022218 113 98 109 
-0.024421 -0.196289 0.999023 111 85 94 
-0.020508 -0.196289 0.993554 113 84 93 
-0.020508 -0.201669 1.022461 112 98 109 
-0.020508 -0.196289 1.025344 109 98 109 
-0.024171 -0.190430 0.999023 107 83 92 
-0.020508 -0.190430 0.993678 108 82 91 
-0.020508 -0.193906 1.028320 108 99 111 
-0.020508 -0.190430 1.033835 107 104 115 
-0.023442 -0.184570 0.999023 102 81 92 
-0.020508 -0.184570 0.995368 103 80 91 
-0.014648 -0.225787 1.016602 131 110 126 
-0.015235 -0.225586 1.016602 131 109 125 
-0.014648 -0.225586 1.016016 132 110 126 
-0.014648 -0.220283 1.004883 133 106 122 
-0.016079 -0.219727 1.004883 132 105 119 
-0.014648 -0.219727 1.003471 133 106 121 
-0.014648 -0.222752 1.010742 132 108 124 
-0.020193 -0.219727 1.010742 129 102 115 
-0.014648 -0.219727 1.022975 128 111 125 
-0.014648 -0.216449 0.999023 133 104 117 
-0.018867 -0.213867 0.999023 129 98 109 
-0.014648 -0.213867 0.995759 134 102 115 
-0.014648 -0.213867 1.022555 125 111 122 
-0.014648 -0.210734 0.993164 133 100 111 
-0.017340 -0.208008 0.993164 128 96 105 
-0.014648 -0.208008 0.990789 132 99 109 
-0.014648 -0.208008 1.022647 119 106 116 
-0.019100 -0.202148 0.993164 120 88 97 
-0.014648 -0.202148 0.988702 125 92 100 
-0.018418 -0.202148 1.022461 113 99 110 
-0.014648 -0.202148 1.022724 115 101 112 
-0.014648 -0.197591 0.987305 119 85 94 
-0.015025 -0.196289 0.987305 117 84 92 
-0.014648 -0.196289 0.986911 117 84 92 
-0.020218 -0.196289 0.993164 114 84 93 
-0.014648 -0.196298 1.028320 110 102 114 
-0.014676 -0.196289 1.028320 110 102 114 
-0.014648 -0.196289 1.028328 110 102 114 
-0.015530 -0.190430 0.987305 110 79 87 
-0.014648 -0.190430 0.986412 111 78 87 
-0.020071 -0.190430 0.993164 108 82 91 
-0.014648 -0.187317 0.987305 107 77 86 
-0.018391 -0.184570 0.993164 103 79 89 
-0.014648 -0.184570 0.988270 104 76 85 
-0.008789 -0.226900 1.016602 131 114 134 
-0.008789 -0.225586 1.012254 132 113 134 
-0.008789 -0.221712 1.004883 133 109 129 
-0.008789 -0.219727 0.999993 133 107 127 
-0.008789 -0.224750 1.010742 132 112 133 
-0.008789 -0.219727 1.022927 127 114 130 
-0.008789 -0.219035 0.999023 133 107 127 
-0.008789 -0.213867 1.022891 127 114 126 
-0.008789 -0.208008 1.023272 122 111 123 
-0.013110 -0.202148 0.987305 127 93 102 
-0.008789 -0.202148 0.984175 132 96 106 
-0.008789 -0.202148 1.023961 118 106 117 
-0.008789 -0.196289 0.981539 124 87 96 
-0.014621 -0.196289 1.028320 110 102 114 
-0.008789 -0.196289 1.026098 113 104 116 
-0.008789 -0.190430 0.981717 114 79 86 
-0.008789 -0.194381 1.028320 112 105 117 
-0.008789 -0.190430 1.034093 111 111 123 
-0.013781 -0.184570 0.987305 105 76 85 
-0.008789 -0.184570 0.982617 107 75 82 
-0.002930 -0.226925 1.016602 129 118 143 
-0.002930 -0.225586 1.011608 130 117 144 
-0.002930 -0.222077 1.004883 131 114 139 
-0.002930 -0.225102 1.010742 131 117 143 
-0.002930 -0.219727 1.023745 126 116 136 
-0.002930 -0.213867 1.023276 126 114 131 
-0.002930 -0.208008 1.022991 123 110 124 
-0.002930 -0.202866 0.981445 133 96 110 
-0.004125 -0.202148 0.981445 132 96 108 
-0.002930 -0.202148 0.980816 133 96 109 
-0.002930 -0.202148 1.024816 118 107 119 
-0.008586 -0.196289 0.981445 124 87 96 
-0.002930 -0.196289 0.978250 127 86 96 
-0.002930 -0.198717 1.028320 112 107 119 
-0.006494 -0.196289 1.028320 112 105 117 
-0.002930 -0.196289 1.030838 111 110 122 
-0.008447 -0.190430 0.981445 115 79 86 
-0.002930 -0.190430 0.977297 117 77 84 
-0.007168 -0.184570 0.981445 106 74 80 
-0.002930 -0.184570 0.978451 104 71 75 
-0.002256 -0.219727 0.999023 132 112 139 
0.001099 -0.202148 1.028320 115 108 121 
0.001716 -0.190430 0.975586 118 77 84 
-0.032227 -0.178711 1.019854 94 82 89 
-0.026367 -0.183697 1.004883 100 81 91 
-0.027197 -0.178711 1.010742 95 79 88 
-0.026367 -0.178711 1.008949 96 79 88 
-0.030384 -0.178711 1.016602 94 81 88 
-0.026367 -0.176877 1.010742 94 78 87 
-0.027705 -0.172852 1.016602 89 78 85 
-0.026367 -0.172852 1.014294 90 77 85 
-0.026367 -0.170830 1.016602 87 77 84 
-0.020508 -0.179173 0.999023 98 79 89 
-0.023910 -0.178711 1.004883 96 79 88 
-0.020508 -0.178711 0.999376 97 79 89 
-0.020680 -0.172852 1.004883 92 75 83 
-0.020508 -0.172852 1.004604 92 75 83 
-0.024016 -0.172852 1.010742 90 76 84 
-0.020508 -0.172635 1.004883 91 75 83 
-0.020508 -0.168612 1.010742 86 73 80 
-0.023344 -0.166992 1.016602 82 75 81 
-0.020508 -0.166992 1.012677 83 73 80 
-0.020508 -0.163134 1.016602 75 70 76 
-0.016176 -0.178711 0.993164 98 76 86 
-0.014648 -0.178711 0.991053 98 75 84 
-0.020238 -0.178711 0.999023 97 79 89 
-0.014648 -0.176325 0.993164 96 74 83 
-0.016291 -0.172852 0.999023 92 74 82 
-0.014648 -0.172852 0.996352 92 73 81 
-0.014648 -0.170850 0.999023 90 72 79 
-0.014879 -0.166992 1.004883 86 70 76 
-0.014648 -0.166992 1.004494 86 70 76 
-0.019051 -0.166992 1.010742 84 72 79 
-0.014648 -0.166747 1.004883 86 70 76 
-0.014648 -0.162012 1.010742 75 65 71 
-0.018792 -0.161133 1.016602 71 68 73 
-0.014648 -0.161133 1.011758 73 65 70 
-0.016373 -0.155273 1.016602 69 67 70 
-0.014648 -0.155273 1.015172 69 66 69 
-0.011075 -0.178711 0.987305 99 75 83 
-0.008789 -0.178711 0.984990 100 75 81 
-0.008789 -0.175617 0.987305 97 75 81 
-0.012102 -0.172852 0.993164 93 74 81 
-0.008789 -0.172852 0.989349 95 75 80 
-0.008789 -0.169763 0.993164 91 72 77 
-0.010657 -0.166992 0.999023 87 70 75 
-0.008789 -0.166992 0.996720 88 70 74 
-0.008789 -0.165465 0.999023 85 68 73 
-0.008789 -0.161147 1.004883 76 64 68 
-0.013831 -0.161133 1.010742 73 64 69 
-0.008789 -0.161133 1.004901 76 64 68 
-0.010076 -0.155273 1.010742 71 66 67 
-0.008789 -0.155273 1.009527 72 66 67 
-0.004510 -0.178711 0.981445 96 70 74 
-0.002930 -0.178711 0.980231 94 69 72 
-0.002930 -0.176884 0.981445 95 72 74 
-0.006403 -0.172852 0.987305 96 77 81 
-0.002930 -0.172852 0.984314 97 78 81 
-0.002930 -0.170076 0.987305 95 76 79 
-0.005145 -0.166992 0.993164 90 71 75 
-0.002930 -0.166992 0.990901 91 72 75 
-0.002930 -0.165453 0.993164 88 70 73 
-0.003358 -0.161133 0.999023 80 65 68 
-0.002930 -0.161133 0.998565 80 65 68 
-0.008770 -0.161133 1.004883 76 64 68 
-0.002930 -0.160711 0.999023 80 66 68 
0.002930 -0.178711 0.978728 96 71 73 
0.002930 -0.174208 0.981445 94 74 75 
0.002930 -0.172852 0.982366 94 76 76 
0.002930 -0.167100 0.987305 91 74 75 
0.002930 -0.166992 0.987401 91 74 75 
0.002930 -0.161705 0.993164 87 71 71 
0.002930 -0.161133 0.993888 86 71 71 
0.008789 -0.178711 0.979606 100 75 76 
0.008789 -0.175155 0.981445 97 77 76 
0.008789 -0.172852 0.982704 96 78 77 
0.004480 -0.166992 0.987305 92 76 76 
0.008789 -0.166992 0.987094 94 80 80 
0.008789 -0.166740 0.987305 94 80 80 
0.008789 -0.162332 0.993164 92 80 79 
0.008789 -0.161133 0.994066 92 80 79 
0.014648 -0.181823 0.981445 110 85 87 
0.012216 -0.178711 0.981445 104 81 82 
0.014648 -0.178711 0.983332 106 86 86 
0.014648 -0.173005 0.987305 103 89 88 
0.014551 -0.172852 0.987305 103 89 88 
0.014648 -0.172852 0.987434 103 89 88 
0.009104 -0.166992 0.987305 95 81 81 
0.014648 -0.166992 0.993024 100 92 91 
0.014648 -0.166642 0.993164 100 92 91 
0.016535 -0.178711 0.987305 107 90 89 
0.019577 -0.178711 0.993164 108 95 93 
0.020508 -0.178711 0.994741 108 97 95 
0.018080 -0.172852 0.993164 105 96 94 
0.020508 -0.172852 0.997707 107 101 98 
0.014760 -0.166992 0.993164 100 92 91 
0.020508 -0.169411 0.999023 106 102 100 
0.019955 -0.166992 0.999023 105 102 100 
0.020508 -0.166992 0.999586 106 103 101 
0.019831 -0.161133 0.999023 103 99 97 
0.020508 -0.161133 0.999548 104 100 98 
0.022629 -0.178711 0.999023 109 101 98 
0.025841 -0.178711 1.004883 110 107 103 
0.026367 -0.178711 1.005847 111 108 104 
0.021007 -0.172852 0.999023 107 102 99 
0.026367 -0.176079 1.004883 110 108 104 
0.026367 -0.172852 1.004191 110 108 105 
0.026367 -0.166992 1.003633 109 109 106 
0.029798 -0.178711 1.010742 113 113 109 
0.032227 -0.178711 1.012985 114 116 112 
0.027327 -0.172852 1.004883 110 109 106 
