ply
format ascii 1.0
comment Created by Open3D
obj_info Generated by CloudCompare!
element vertex 597
property float x
property float y
property float z
property uchar red
property uchar green
property uchar blue
end_header
0.079102 -0.090820 0.879523 121 98 91 
0.082829 -0.090820 0.875977 121 100 94 
0.084961 -0.087836 0.875977 116 98 90 
0.084961 -0.090820 0.874227 121 101 96 
0.089394 -0.084961 0.875977 111 97 89 
0.090820 -0.090820 0.870598 119 103 99 
0.090820 -0.084961 0.875503 111 97 90 
0.092060 -0.090820 0.870117 118 103 99 
0.096680 -0.089167 0.870117 113 102 98 
0.096680 -0.090820 0.868872 114 103 99 
0.096680 -0.084961 0.873689 110 99 93 
0.096680 -0.079102 0.875484 106 98 90 
0.067383 -0.117439 0.893555 130 96 91 
0.067199 -0.114258 0.893555 127 95 90 
0.067383 -0.114258 0.892250 128 96 92 
0.067383 -0.117845 0.899414 122 93 86 
0.066806 -0.114258 0.899414 120 93 85 
0.067383 -0.118197 0.905273 119 94 85 
0.067383 -0.113015 0.893555 125 95 90 
0.066114 -0.108398 0.899414 118 95 86 
0.067383 -0.108398 0.896067 120 94 86 
0.067383 -0.102539 0.894166 119 95 86 
0.067383 -0.099395 0.893555 118 96 85 
0.073242 -0.132795 0.875977 162 138 126 
0.072631 -0.131836 0.875977 162 136 125 
0.073242 -0.131836 0.874199 164 140 128 
0.073242 -0.135235 0.881836 157 129 117 
0.071256 -0.131836 0.881836 155 124 115 
0.073242 -0.136672 0.887695 151 120 109 
0.070646 -0.131836 0.887695 148 114 106 
0.073242 -0.136577 0.893555 146 112 103 
0.070633 -0.131836 0.893555 142 108 101 
0.073242 -0.134242 0.899414 137 105 97 
0.071723 -0.131836 0.899414 136 103 96 
0.073242 -0.131836 0.901566 134 102 95 
0.073242 -0.128438 0.870117 165 144 134 
0.072190 -0.125977 0.870117 163 140 133 
0.073242 -0.125977 0.867807 164 145 138 
0.070294 -0.125977 0.875977 157 126 121 
0.069561 -0.125977 0.881836 150 116 110 
0.068969 -0.125977 0.887695 143 105 101 
0.069013 -0.125977 0.893555 137 100 96 
0.069627 -0.125977 0.899414 130 97 92 
0.073242 -0.126309 0.905273 124 94 88 
0.072857 -0.125977 0.905273 124 94 87 
0.073242 -0.125977 0.905822 123 94 87 
0.071286 -0.120117 0.870117 158 131 128 
0.073242 -0.120117 0.865816 160 141 137 
0.069810 -0.120117 0.875977 152 119 116 
0.068867 -0.120117 0.881836 145 109 105 
0.067881 -0.120117 0.887695 138 101 97 
0.067544 -0.120117 0.893555 132 97 92 
0.067774 -0.120117 0.899414 124 93 87 
0.068774 -0.120117 0.905273 119 92 84 
0.073242 -0.122466 0.911133 116 95 85 
0.072320 -0.114258 0.870117 151 127 124 
0.073242 -0.114258 0.868097 152 130 128 
0.070575 -0.114258 0.875977 148 116 114 
0.069112 -0.114258 0.881836 142 107 105 
0.068044 -0.114258 0.887695 135 101 97 
0.073242 -0.111114 0.870117 148 125 123 
0.072526 -0.108398 0.875977 142 114 113 
0.073242 -0.108398 0.873407 143 118 116 
0.070466 -0.108398 0.881836 137 107 105 
0.068744 -0.108398 0.887695 129 100 96 
0.068093 -0.108398 0.893555 121 94 88 
0.073242 -0.106951 0.875977 140 113 112 
0.072268 -0.102539 0.881836 129 102 100 
0.073242 -0.102539 0.879902 131 104 103 
0.070060 -0.102539 0.887695 124 97 92 
0.067613 -0.102539 0.893555 120 95 86 
0.073242 -0.100382 0.881836 128 101 98 
0.071088 -0.096680 0.887695 122 98 89 
0.073242 -0.096680 0.884797 123 98 92 
0.079102 -0.144260 0.887695 155 130 116 
0.078417 -0.143555 0.887695 156 130 115 
0.079102 -0.143555 0.883254 159 136 119 
0.079102 -0.143555 0.891808 152 125 112 
0.079102 -0.141550 0.875977 162 146 124 
0.076379 -0.137695 0.875977 164 143 126 
0.079102 -0.137695 0.871559 166 154 132 
0.079102 -0.143225 0.881836 160 138 120 
0.074853 -0.137695 0.881836 158 132 118 
0.073917 -0.137695 0.887695 152 122 110 
0.079102 -0.143250 0.893555 150 122 110 
0.073930 -0.137695 0.893555 146 114 104 
0.079102 -0.141382 0.899414 142 113 102 
0.075720 -0.137695 0.899414 139 108 98 
0.079102 -0.137758 0.905273 133 104 95 
0.078971 -0.137695 0.905273 133 104 95 
0.079102 -0.137695 0.905436 133 104 95 
0.079102 -0.133148 0.864258 169 163 143 
0.077917 -0.131836 0.864258 170 161 143 
0.079102 -0.131836 0.862789 170 164 145 
0.079102 -0.136466 0.870117 167 155 135 
0.074979 -0.131836 0.870117 167 149 135 
0.076688 -0.131836 0.905273 129 98 90 
0.079102 -0.132257 0.911133 126 102 92 
0.078843 -0.131836 0.911133 125 101 92 
0.079102 -0.131836 0.912898 125 102 92 
0.075093 -0.125977 0.864258 166 152 143 
0.079102 -0.125977 0.858865 166 160 147 
0.075415 -0.125977 0.911133 120 96 88 
0.079102 -0.130471 0.916992 123 102 92 
0.075978 -0.125977 0.916992 118 100 90 
0.079102 -0.123356 0.858398 164 158 147 
0.078534 -0.120117 0.858398 161 155 147 
0.079102 -0.120117 0.857780 161 156 147 
0.074202 -0.120117 0.864258 161 145 140 
0.079083 -0.114258 0.858398 153 146 140 
0.079102 -0.114258 0.858379 153 146 140 
0.075090 -0.114258 0.864258 153 137 134 
0.079102 -0.114218 0.858398 153 146 140 
0.077688 -0.108398 0.864258 145 130 127 
0.079102 -0.108398 0.862323 145 132 129 
0.074277 -0.108398 0.870117 145 123 121 
0.079102 -0.106033 0.864258 142 126 124 
0.077760 -0.102539 0.870117 137 114 113 
0.079102 -0.102539 0.867920 137 117 116 
0.075038 -0.102539 0.875977 134 108 107 
0.079102 -0.101162 0.870117 135 113 112 
0.078231 -0.096680 0.875977 127 103 100 
0.079102 -0.096680 0.874927 128 104 102 
0.074829 -0.096680 0.881836 124 99 95 
0.079102 -0.095399 0.875977 126 102 99 
0.084961 -0.149420 0.893555 147 125 112 
0.084953 -0.149414 0.893555 147 125 112 
0.084961 -0.149414 0.893277 147 125 113 
0.084961 -0.149414 0.893591 147 125 112 
0.084961 -0.145968 0.875977 153 145 120 
0.081190 -0.143555 0.875977 159 146 122 
0.084961 -0.143555 0.870776 155 153 126 
0.084961 -0.148135 0.881836 151 138 117 
0.079397 -0.143555 0.881836 160 139 120 
0.084961 -0.149254 0.887695 149 131 115 
0.079361 -0.143555 0.893555 150 122 110 
0.084961 -0.148238 0.899414 144 121 109 
0.080696 -0.143555 0.899414 143 115 104 
0.084961 -0.144331 0.905273 137 110 100 
0.084408 -0.143555 0.905273 136 108 99 
0.084961 -0.143555 0.908485 136 113 102 
0.084961 -0.143093 0.870117 156 154 127 
0.080216 -0.137695 0.870117 167 157 134 
0.084961 -0.137695 0.865177 163 164 138 
0.084961 -0.137695 0.910809 128 101 93 
0.084961 -0.132656 0.858398 167 169 147 
0.083825 -0.131836 0.858398 169 169 147 
0.084961 -0.131836 0.857384 168 170 148 
0.084961 -0.136887 0.864258 163 164 140 
0.084961 -0.137164 0.911133 127 101 93 
0.084961 -0.134378 0.916992 126 105 95 
0.082310 -0.131836 0.916992 124 103 93 
0.084961 -0.131836 0.922638 124 104 94 
0.084961 -0.131836 0.922943 124 104 94 
0.079612 -0.125977 0.858398 166 160 147 
0.084961 -0.125977 0.853771 166 168 149 
0.084961 -0.131811 0.922852 124 104 94 
0.084961 -0.120117 0.853068 159 159 146 
0.084961 -0.114258 0.854003 151 149 140 
0.082271 -0.108398 0.858398 144 135 130 
0.084961 -0.108398 0.856287 143 136 130 
0.084961 -0.105730 0.858398 140 131 125 
0.082838 -0.102539 0.864258 137 121 118 
0.084961 -0.102539 0.862561 136 122 119 
0.084961 -0.101014 0.864258 134 119 116 
0.083381 -0.096680 0.870117 129 109 107 
0.084961 -0.096680 0.868308 129 111 109 
0.084961 -0.095153 0.870117 127 108 105 
0.090820 -0.150352 0.881836 147 142 121 
0.087108 -0.149414 0.881836 148 138 117 
0.090820 -0.149414 0.878492 150 147 123 
0.090820 -0.151406 0.887695 145 136 119 
0.085176 -0.149414 0.887695 149 131 115 
0.090820 -0.152218 0.893555 144 133 117 
0.090820 -0.152565 0.899414 141 128 115 
0.086237 -0.149414 0.899414 144 123 111 
0.090820 -0.149414 0.904772 139 116 107 
0.090820 -0.144045 0.870117 153 158 129 
0.087008 -0.143555 0.870117 154 155 127 
0.090820 -0.143555 0.869218 153 158 130 
0.090820 -0.147669 0.875977 151 151 125 
0.090820 -0.148480 0.905273 138 114 105 
0.090820 -0.143555 0.909158 134 108 100 
0.090820 -0.140050 0.864258 156 163 135 
0.086366 -0.137695 0.864258 161 164 138 
0.090820 -0.137695 0.861242 158 166 138 
0.090820 -0.141719 0.911133 130 105 97 
0.085390 -0.137695 0.911133 128 101 93 
0.090820 -0.137986 0.916992 126 107 99 
0.089849 -0.137695 0.916992 127 107 98 
0.090820 -0.137695 0.917373 126 107 98 
0.090820 -0.134995 0.858398 162 170 143 
0.090820 -0.131836 0.855176 167 175 148 
0.090820 -0.132507 0.922852 120 105 95 
0.085386 -0.131836 0.922852 124 104 94 
0.090820 -0.131836 0.923813 119 104 95 
0.090820 -0.128020 0.852539 166 173 149 
0.087490 -0.125977 0.852539 166 170 149 
0.090820 -0.125977 0.851277 165 171 149 
0.090820 -0.129141 0.928711 116 102 92 
0.086038 -0.120117 0.852539 158 159 145 
0.090820 -0.120117 0.850795 157 160 143 
0.088044 -0.114258 0.852539 151 149 139 
0.090820 -0.114258 0.851612 150 149 138 
0.090820 -0.112015 0.852539 147 144 134 
0.090820 -0.108398 0.854400 142 136 128 
0.090820 -0.102624 0.858398 135 125 119 
0.090820 -0.102539 0.858476 134 125 119 
0.090820 -0.097441 0.864258 128 114 110 
0.090820 -0.096680 0.864976 127 112 109 
0.090820 -0.091257 0.870117 120 104 100 
0.096680 -0.155349 0.905273 138 134 120 
0.096488 -0.155273 0.905273 138 133 120 
0.096680 -0.155273 0.903733 138 134 119 
0.096680 -0.155273 0.905459 138 133 119 
0.096680 -0.150402 0.881836 149 149 126 
0.096680 -0.149414 0.878853 151 153 126 
0.096680 -0.151951 0.887695 145 143 124 
0.096680 -0.153346 0.893555 142 138 122 
0.096680 -0.154736 0.899414 138 133 118 
0.092658 -0.149414 0.905273 139 117 107 
0.096680 -0.149414 0.906661 139 121 110 
0.096680 -0.144932 0.870117 151 159 129 
0.096680 -0.143555 0.866720 152 163 130 
0.096680 -0.147743 0.875977 151 155 127 
0.096680 -0.143555 0.908208 125 96 93 
0.096680 -0.141468 0.864258 153 165 132 
0.096680 -0.137695 0.859480 156 170 137 
0.094958 -0.137695 0.911133 114 79 79 
0.096680 -0.137695 0.909347 113 73 75 
0.091032 -0.137695 0.916992 126 106 98 
0.096680 -0.136685 0.858398 158 171 139 
0.096680 -0.131836 0.853971 162 174 144 
0.096680 -0.135718 0.911133 109 71 72 
0.096680 -0.131865 0.916992 102 77 75 
0.091267 -0.131836 0.922852 118 103 94 
0.096680 -0.131836 0.917027 102 77 75 
0.096680 -0.129606 0.852539 163 173 145 
0.096680 -0.125977 0.850794 161 170 145 
0.096198 -0.125977 0.922852 95 88 82 
0.096680 -0.125977 0.922168 94 85 80 
0.095627 -0.125977 0.928711 105 102 91 
0.096680 -0.125977 0.929303 104 102 92 
0.096680 -0.120117 0.850720 154 158 139 
0.096680 -0.125194 0.922852 92 86 81 
0.096680 -0.125203 0.928711 102 102 91 
0.096680 -0.114258 0.851728 147 146 133 
0.096680 -0.112009 0.852539 144 142 130 
0.096680 -0.108398 0.854221 139 134 125 
0.096680 -0.102659 0.858398 132 123 116 
0.096680 -0.102539 0.858493 132 122 116 
0.094308 -0.096680 0.864258 124 112 107 
0.096680 -0.096680 0.863878 122 111 106 
0.096680 -0.096219 0.864258 121 111 106 
0.102539 -0.155679 0.899414 140 141 124 
0.098403 -0.155273 0.899414 138 136 120 
0.102539 -0.155273 0.897832 141 143 125 
0.102539 -0.155351 0.905273 138 137 121 
0.102539 -0.155273 0.909490 139 136 119 
0.102539 -0.150410 0.881836 149 154 127 
0.102539 -0.149414 0.879121 150 157 127 
0.102539 -0.151957 0.887695 145 147 126 
0.102539 -0.153572 0.893555 142 145 126 
0.102539 -0.154314 0.905273 137 133 118 
0.099167 -0.149414 0.905273 136 115 107 
0.102539 -0.149414 0.904498 133 113 105 
0.102539 -0.144884 0.870117 151 162 130 
0.102539 -0.143555 0.866780 151 165 130 
0.102539 -0.147544 0.875977 150 158 127 
0.102539 -0.146627 0.905273 130 101 99 
0.102539 -0.143843 0.911133 117 90 88 
0.101905 -0.143555 0.911133 116 89 87 
0.102539 -0.143555 0.911491 116 90 88 
0.102539 -0.141507 0.864258 153 167 132 
0.102539 -0.137695 0.859618 153 169 135 
0.098835 -0.137695 0.911133 112 72 75 
0.102539 -0.137695 0.916371 107 78 78 
0.102539 -0.136288 0.858398 155 170 137 
0.102539 -0.131836 0.855437 156 169 138 
0.102539 -0.136964 0.916992 105 77 77 
0.102539 -0.133113 0.922852 103 89 84 
0.101087 -0.131836 0.922852 102 89 83 
0.102539 -0.131836 0.927674 107 99 90 
0.102539 -0.126325 0.852539 156 165 138 
0.102539 -0.125977 0.852404 156 165 138 
0.097513 -0.125977 0.922852 94 86 81 
0.102539 -0.131129 0.928711 106 101 92 
0.097694 -0.125977 0.928711 102 101 91 
0.102539 -0.120117 0.852358 150 154 134 
0.102539 -0.119178 0.852539 149 152 133 
0.099061 -0.114258 0.852539 146 145 131 
0.102539 -0.114258 0.853735 143 142 128 
0.102539 -0.108398 0.856268 137 131 121 
0.102539 -0.105179 0.858398 133 125 117 
0.102539 -0.102539 0.860052 129 120 113 
0.102539 -0.096680 0.863987 119 110 104 
0.102539 -0.096266 0.864258 118 110 104 
0.102539 -0.090820 0.868729 111 103 98 
0.108398 -0.155435 0.899414 142 148 128 
0.108398 -0.155273 0.898923 142 148 128 
0.108398 -0.156110 0.905273 139 143 125 
0.108398 -0.156036 0.911133 138 140 122 
0.102752 -0.155273 0.911133 139 136 119 
0.108398 -0.155273 0.912834 137 137 119 
0.108398 -0.149757 0.881836 147 155 126 
0.108398 -0.149414 0.880989 148 156 126 
0.108398 -0.151533 0.887695 145 150 125 
0.108398 -0.152934 0.893555 143 147 126 
0.108398 -0.149533 0.905273 131 108 104 
0.108398 -0.149414 0.905223 131 107 104 
0.108398 -0.153598 0.911133 134 130 116 
0.108398 -0.144058 0.870117 149 163 129 
0.108398 -0.143555 0.869044 149 164 129 
0.108398 -0.146781 0.875977 149 159 128 
0.108398 -0.149341 0.905273 131 107 103 
0.108398 -0.144597 0.911133 120 92 94 
0.108398 -0.143555 0.912846 117 90 92 
0.108398 -0.139139 0.864258 150 165 132 
0.108398 -0.137695 0.862650 149 164 132 
0.108398 -0.139914 0.916992 109 80 82 
0.103091 -0.137695 0.916992 106 78 78 
0.108398 -0.137695 0.920060 108 82 84 
0.108398 -0.132914 0.858398 153 166 135 
0.108398 -0.131836 0.857603 154 166 136 
0.108398 -0.135415 0.922852 106 87 85 
0.103253 -0.131836 0.928711 107 101 92 
0.102774 -0.125977 0.852539 156 165 138 
0.108398 -0.125977 0.855900 152 160 133 
0.102903 -0.120117 0.852539 150 154 134 
0.108398 -0.120117 0.855315 146 150 129 
0.108398 -0.114258 0.856072 140 139 124 
0.108398 -0.109197 0.858398 135 130 118 
0.107298 -0.108398 0.858398 135 129 118 
0.108398 -0.108398 0.858821 134 128 117 
0.108398 -0.102539 0.861833 127 118 110 
0.108398 -0.098210 0.864258 121 113 106 
0.103819 -0.096680 0.864258 119 110 104 
0.108398 -0.096680 0.865245 118 110 104 
0.108398 -0.090820 0.869296 110 103 98 
0.109307 -0.155273 0.899414 142 148 128 
0.114258 -0.155910 0.905273 138 146 126 
0.114258 -0.155273 0.902698 140 148 128 
0.114258 -0.155989 0.911133 135 141 123 
0.114258 -0.155273 0.914163 133 138 120 
0.109669 -0.149414 0.881836 147 155 126 
0.114258 -0.150804 0.887695 143 150 124 
0.114258 -0.149414 0.884443 146 153 125 
0.114258 -0.152351 0.893555 141 146 124 
0.114258 -0.153774 0.899414 141 146 127 
0.108816 -0.149414 0.905273 131 107 104 
0.114258 -0.153004 0.911133 131 127 115 
0.114258 -0.149414 0.906320 131 110 108 
0.110046 -0.143555 0.870117 148 163 129 
0.114258 -0.145439 0.875977 146 158 127 
0.114258 -0.143555 0.872357 146 160 127 
0.114258 -0.147917 0.881836 146 155 125 
0.114258 -0.146579 0.911133 124 97 99 
0.114258 -0.144335 0.916992 117 97 95 
0.112366 -0.143555 0.916992 115 94 92 
0.114258 -0.143555 0.918816 116 97 94 
0.110891 -0.137695 0.864258 148 163 131 
0.114258 -0.141326 0.870117 148 162 129 
0.114258 -0.137695 0.866139 147 162 131 
0.114258 -0.140733 0.922852 111 92 90 
0.110320 -0.137695 0.922852 108 88 87 
0.114258 -0.137695 0.928071 110 96 92 
0.109551 -0.131836 0.858398 153 166 136 
0.114258 -0.135195 0.864258 149 162 132 
0.114258 -0.131836 0.861756 151 162 133 
0.114258 -0.137231 0.928711 110 97 93 
0.112227 -0.125977 0.858398 149 157 131 
0.114258 -0.125977 0.859730 147 155 129 
0.113726 -0.120117 0.858398 141 146 124 
0.114258 -0.120117 0.858709 141 146 124 
0.113076 -0.114258 0.858398 137 137 120 
0.114258 -0.114258 0.859146 136 136 120 
0.114258 -0.108398 0.860998 131 126 113 
0.114258 -0.102539 0.863754 126 117 107 
0.114258 -0.101506 0.864258 125 116 106 
0.114258 -0.096680 0.866691 119 110 102 
0.114258 -0.091261 0.870117 110 103 97 
0.112611 -0.090820 0.870117 110 103 97 
0.114258 -0.090820 0.870410 110 103 97 
0.117348 -0.155273 0.905273 137 145 126 
0.120117 -0.155388 0.911133 134 142 125 
0.120117 -0.155273 0.910337 134 142 126 
0.120117 -0.155836 0.916992 134 142 125 
0.117738 -0.155273 0.916992 133 139 122 
0.120117 -0.155273 0.917802 133 141 123 
0.118562 -0.149414 0.887695 144 151 124 
0.120117 -0.151328 0.893555 141 146 122 
0.120117 -0.149414 0.888872 143 151 124 
0.120117 -0.152484 0.899414 139 143 122 
0.120117 -0.153598 0.905273 137 140 123 
0.120117 -0.154297 0.911133 133 136 122 
0.120117 -0.149414 0.909730 131 114 107 
0.120117 -0.154206 0.916992 132 137 121 
0.118258 -0.143555 0.875977 145 158 127 
0.120117 -0.145954 0.881836 144 155 125 
0.120117 -0.143555 0.877675 144 157 127 
0.120117 -0.148672 0.887695 144 152 124 
0.120117 -0.148162 0.911133 128 105 103 
0.120117 -0.145866 0.916992 119 97 98 
0.120117 -0.144266 0.922852 118 103 100 
0.118367 -0.143555 0.922852 117 101 98 
0.120117 -0.143555 0.925331 117 104 99 
0.120047 -0.137695 0.870117 146 160 131 
0.120117 -0.142113 0.875977 145 159 128 
0.120117 -0.137695 0.870167 146 160 130 
0.120117 -0.141718 0.928711 114 103 97 
0.114809 -0.137695 0.928711 110 98 93 
0.117740 -0.131836 0.864258 148 158 130 
0.120117 -0.137630 0.870117 146 160 130 
0.120117 -0.131836 0.865944 146 156 128 
0.120117 -0.127558 0.864258 142 150 125 
0.120117 -0.125977 0.863497 141 148 124 
0.120117 -0.120117 0.861693 137 142 120 
0.120117 -0.114258 0.861802 133 133 116 
0.120117 -0.108398 0.863686 129 124 110 
0.120117 -0.106987 0.864258 129 122 108 
0.115638 -0.102539 0.864258 126 117 106 
0.120117 -0.102539 0.866087 126 116 104 
0.120117 -0.096680 0.868421 119 109 99 
0.120117 -0.092695 0.870117 113 105 97 
0.120117 -0.090820 0.871155 110 103 95 
0.120928 -0.155273 0.911133 134 142 125 
0.123907 -0.155273 0.916992 133 142 125 
0.125977 -0.149449 0.893555 140 148 122 
0.125977 -0.149414 0.893468 141 148 122 
0.125977 -0.151273 0.899414 139 143 122 
0.125977 -0.152671 0.905273 136 141 122 
0.125977 -0.152686 0.911133 134 134 119 
0.122393 -0.149414 0.911133 130 114 107 
0.125977 -0.149414 0.913191 131 120 111 
0.125977 -0.143595 0.881836 143 155 128 
0.125977 -0.143555 0.881771 143 155 128 
0.125977 -0.146497 0.887695 142 150 123 
0.125977 -0.146828 0.916992 125 104 103 
0.125977 -0.145779 0.922852 117 103 100 
0.125977 -0.144330 0.928711 117 108 101 
0.123332 -0.143555 0.928711 116 107 100 
0.125977 -0.143555 0.932321 115 110 101 
0.125977 -0.139200 0.875977 141 154 127 
0.125977 -0.137695 0.874064 141 154 127 
0.125977 -0.142755 0.934570 114 111 100 
0.125484 -0.131836 0.870117 141 149 124 
0.125977 -0.131836 0.870494 141 149 123 
0.121169 -0.125977 0.864258 141 147 123 
0.125977 -0.130989 0.870117 140 148 123 
0.125977 -0.125977 0.867521 138 144 120 
0.123562 -0.120117 0.864258 135 139 118 
0.125977 -0.120117 0.866195 134 137 117 
0.123583 -0.114258 0.864258 132 131 115 
0.125977 -0.114258 0.865845 131 130 114 
0.121109 -0.108398 0.864258 129 123 110 
0.125977 -0.108398 0.866814 128 121 108 
0.125977 -0.102539 0.868586 125 114 102 
0.125977 -0.098208 0.870117 120 110 99 
0.124623 -0.096680 0.870117 118 108 98 
0.125977 -0.096680 0.870758 118 108 97 
0.125977 -0.090820 0.872642 110 103 95 
0.126061 -0.149414 0.893555 140 148 122 
0.131836 -0.149540 0.899414 139 144 122 
0.131836 -0.149414 0.899124 139 145 122 
0.131836 -0.151508 0.905273 136 141 120 
0.131836 -0.151756 0.911133 134 136 118 
0.131836 -0.151443 0.916992 132 127 115 
0.130367 -0.149414 0.916992 131 118 109 
0.131836 -0.149414 0.918328 130 118 109 
0.126056 -0.143555 0.881836 143 155 128 
0.131836 -0.143859 0.887695 140 150 126 
0.131836 -0.143555 0.887172 140 150 126 
0.131836 -0.146146 0.893555 140 145 121 
0.131836 -0.145919 0.922852 121 105 102 
0.131836 -0.144993 0.928711 118 109 103 
0.131836 -0.144251 0.934570 116 109 102 
0.128668 -0.143555 0.934570 115 110 101 
0.128599 -0.137695 0.875977 139 151 126 
0.131836 -0.139623 0.881836 139 148 125 
0.131836 -0.137695 0.879011 137 147 125 
0.131836 -0.133504 0.875977 137 146 123 
0.131836 -0.131836 0.874919 138 145 122 
0.129360 -0.125977 0.870117 136 141 119 
0.131836 -0.125977 0.872998 135 140 119 
0.130462 -0.120117 0.870117 132 134 115 
0.131836 -0.120117 0.871288 131 133 115 
0.131836 -0.114646 0.870117 129 127 112 
0.131836 -0.114258 0.870046 129 127 112 
0.131836 -0.113214 0.870117 128 126 111 
0.131211 -0.108398 0.870117 126 120 107 
0.131836 -0.108398 0.870641 126 120 107 
0.128635 -0.102539 0.870117 124 114 102 
0.131836 -0.102539 0.872125 124 114 101 
0.131836 -0.096680 0.873182 119 108 98 
0.131836 -0.090820 0.874407 110 103 95 
0.132168 -0.149414 0.899414 139 144 122 
0.132483 -0.143555 0.887695 139 150 126 
0.137695 -0.143590 0.893555 137 145 126 
0.137695 -0.143555 0.893469 137 145 126 
0.137695 -0.143782 0.899414 137 141 118 
0.134785 -0.143555 0.905273 134 127 109 
0.137695 -0.143555 0.899738 136 140 118 
0.137695 -0.143555 0.908620 130 122 109 
0.136598 -0.143555 0.916992 123 102 100 
0.137695 -0.143555 0.916291 125 105 102 
0.137695 -0.145150 0.934570 117 111 104 
0.134868 -0.137695 0.881836 136 145 124 
0.137695 -0.138198 0.887695 137 143 124 
0.137695 -0.137695 0.886878 136 143 124 
0.137695 -0.143478 0.893555 137 145 126 
0.133773 -0.137695 0.893555 139 132 112 
0.137695 -0.137695 0.888149 136 142 123 
0.137695 -0.143418 0.899414 136 141 118 
0.134570 -0.137695 0.899414 135 126 108 
0.135706 -0.137695 0.905273 130 121 104 
0.137695 -0.139371 0.911133 128 113 103 
0.136675 -0.137695 0.911133 127 109 101 
0.137695 -0.143168 0.916992 124 103 101 
0.137695 -0.137695 0.912143 127 109 101 
0.133052 -0.131836 0.875977 137 144 122 
0.136394 -0.131836 0.881836 136 141 121 
0.137695 -0.131836 0.887261 132 137 118 
0.133669 -0.131836 0.893555 134 129 111 
0.137695 -0.131836 0.887754 131 137 117 
0.135246 -0.131836 0.899414 127 125 105 
0.137695 -0.136640 0.905273 129 128 107 
0.137695 -0.131836 0.902739 124 124 104 
0.135532 -0.131836 0.911133 127 112 96 
0.137695 -0.131836 0.907921 126 122 102 
0.137695 -0.133194 0.916992 127 113 96 
0.137116 -0.131836 0.916992 128 114 94 
0.137695 -0.131836 0.917705 128 115 94 
0.134711 -0.125977 0.875977 134 138 118 
0.135752 -0.125977 0.881836 131 134 115 
0.137695 -0.131620 0.887695 131 137 117 
0.135393 -0.125977 0.887695 127 127 110 
0.136498 -0.125977 0.893555 121 121 105 
0.137695 -0.128348 0.899414 119 119 102 
0.137695 -0.125977 0.896226 118 118 102 
0.137695 -0.127974 0.911133 126 114 98 
0.137695 -0.130941 0.916992 128 117 96 
0.135954 -0.120117 0.875977 128 128 111 
0.136389 -0.120117 0.881836 126 125 108 
0.136095 -0.120117 0.887695 121 119 104 
0.136996 -0.120117 0.893555 117 115 101 
0.137695 -0.120117 0.894463 116 114 99 
0.131930 -0.114258 0.870117 129 127 111 
0.135583 -0.114258 0.875977 126 122 107 
0.137695 -0.115845 0.881836 123 120 104 
0.137695 -0.114258 0.881248 123 119 104 
0.137695 -0.116770 0.887695 118 116 100 
0.137695 -0.118407 0.893555 116 113 99 
0.136664 -0.108398 0.875977 123 116 102 
0.137695 -0.108398 0.877457 122 115 101 
0.136960 -0.102539 0.875977 122 112 100 
0.137695 -0.102539 0.876826 121 112 99 
0.136528 -0.096680 0.875977 119 109 98 
0.137695 -0.096680 0.876876 118 108 98 
0.135497 -0.090820 0.875977 110 104 96 
0.137695 -0.090820 0.877054 110 104 96 
0.137764 -0.143555 0.893555 137 145 126 
0.137949 -0.143555 0.899414 136 141 119 
0.139365 -0.143555 0.911133 128 120 109 
0.138173 -0.137695 0.887695 136 142 124 
0.137765 -0.131836 0.887695 131 137 118 
0.140267 -0.131836 0.905273 123 124 105 
0.143555 -0.131836 0.921085 123 109 95 
0.139623 -0.125977 0.899414 117 116 101 
0.143555 -0.126639 0.905273 117 115 101 
0.143555 -0.125977 0.904791 116 114 101 
0.143555 -0.131181 0.911133 122 120 104 
0.143555 -0.127678 0.916992 123 113 96 
0.142277 -0.120117 0.899414 115 112 98 
0.143555 -0.120117 0.900984 115 112 98 
0.138141 -0.114258 0.881836 123 119 103 
0.140161 -0.114258 0.887695 117 113 98 
0.143453 -0.114258 0.893555 116 112 96 
0.143555 -0.116746 0.899414 115 112 97 
0.143555 -0.114258 0.893770 116 112 96 
0.140506 -0.108398 0.881836 121 114 100 
0.143555 -0.109710 0.887695 115 108 92 
0.143555 -0.108398 0.886249 116 109 94 
0.143555 -0.114154 0.893555 116 112 96 
0.141430 -0.102539 0.881836 118 110 96 
0.143555 -0.102539 0.883853 117 109 95 
0.142470 -0.096680 0.881836 115 107 95 
0.143555 -0.096680 0.882738 115 107 95 
0.143555 -0.094194 0.881836 112 106 95 
0.143555 -0.090820 0.880367 110 106 97 
0.144016 -0.125977 0.905273 116 114 101 
0.144411 -0.108398 0.887695 115 107 92 
0.146638 -0.102539 0.887695 115 107 93 
0.102539 -0.088701 0.870117 110 102 97 
0.102539 -0.084961 0.873021 107 99 94 
0.108398 -0.089183 0.870117 109 102 97 
0.108398 -0.084961 0.872700 105 99 93 
0.114258 -0.084961 0.873352 103 99 93 
