ply
format ascii 1.0
comment Created by Open3D
obj_info Generated by CloudCompare!
element vertex 591
property float x
property float y
property float z
property uchar red
property uchar green
property uchar blue
end_header
0.102539 -0.233168 0.770508 127 105 115 
0.096680 -0.232009 0.770508 120 105 113 
0.102539 -0.231445 0.766634 128 101 113 
0.096680 -0.231445 0.769474 120 104 112 
0.102539 -0.234505 0.776367 127 103 114 
0.096680 -0.233437 0.776367 121 106 113 
0.096680 -0.234030 0.782227 121 102 111 
0.096680 -0.234275 0.788086 121 100 109 
0.102539 -0.227074 0.752930 135 99 112 
0.096680 -0.225934 0.752930 128 94 108 
0.102539 -0.228154 0.758789 133 97 111 
0.096680 -0.227432 0.758789 127 94 107 
0.102539 -0.230143 0.764648 131 99 111 
0.096680 -0.228634 0.764648 124 96 107 
0.108398 -0.233079 0.770508 135 102 115 
0.108398 -0.231445 0.767437 137 99 113 
0.106997 -0.225586 0.752930 142 95 111 
0.108398 -0.227872 0.758789 140 98 112 
0.108398 -0.225586 0.753971 143 95 112 
0.108398 -0.229722 0.764648 140 97 112 
0.108398 -0.224770 0.752930 144 95 111 
0.112416 -0.231445 0.770508 141 98 112 
0.113057 -0.231445 0.776367 145 93 110 
0.114258 -0.231445 0.779054 151 96 111 
0.114258 -0.225937 0.758789 148 99 114 
0.114258 -0.225586 0.758004 148 99 114 
0.114258 -0.227974 0.764648 146 97 113 
0.114258 -0.230328 0.770508 145 98 112 
0.114258 -0.223399 0.752930 149 100 114 
0.116236 -0.231445 0.782227 154 98 112 
0.115964 -0.225586 0.758789 149 100 114 
0.120117 -0.225652 0.764648 152 98 113 
0.120117 -0.225586 0.764232 152 98 113 
0.120117 -0.228008 0.770508 150 98 111 
0.120117 -0.228932 0.776367 150 97 110 
0.114258 -0.230385 0.776367 149 93 109 
0.120117 -0.222179 0.752930 149 101 114 
0.120117 -0.224763 0.758789 149 101 114 
0.120372 -0.225586 0.764648 152 98 113 
0.124868 -0.225586 0.770508 151 98 109 
0.125977 -0.228252 0.776367 150 99 111 
0.125977 -0.225586 0.771526 152 98 109 
0.125977 -0.220721 0.752930 149 103 118 
0.125977 -0.222612 0.758789 149 103 117 
0.125977 -0.224298 0.764648 149 102 114 
0.125977 -0.224779 0.770508 152 98 109 
0.131836 -0.226909 0.776367 147 107 115 
0.131836 -0.225586 0.772785 147 107 117 
0.127561 -0.219727 0.752930 149 104 118 
0.131836 -0.220908 0.758789 147 107 120 
0.131836 -0.219727 0.756976 147 106 120 
0.131836 -0.222728 0.764648 148 106 118 
0.131836 -0.224683 0.770508 147 107 119 
0.131836 -0.216615 0.752930 148 107 121 
0.137695 -0.226472 0.776367 145 111 121 
0.137695 -0.225586 0.774705 145 110 121 
0.133436 -0.219727 0.758789 147 108 120 
0.137695 -0.220230 0.764648 145 111 123 
0.137695 -0.219727 0.763914 146 111 123 
0.137695 -0.223315 0.770508 146 109 122 
0.134810 -0.213867 0.752930 147 110 122 
0.137695 -0.216191 0.758789 145 112 123 
0.137695 -0.213867 0.755990 145 112 124 
0.137695 -0.210159 0.752930 144 111 123 
0.139286 -0.225586 0.776367 145 112 122 
0.143555 -0.225586 0.779930 144 114 124 
0.138390 -0.219727 0.764648 145 112 123 
0.142649 -0.219727 0.770508 144 115 125 
0.143555 -0.223043 0.776367 143 115 124 
0.143555 -0.219727 0.771518 144 116 125 
0.139926 -0.213867 0.758789 143 114 124 
0.143555 -0.214533 0.764648 142 116 125 
0.143555 -0.213867 0.763984 142 116 125 
0.143555 -0.218808 0.770508 144 116 125 
0.139298 -0.208008 0.752930 142 112 123 
0.142679 -0.208008 0.758789 141 114 124 
0.143555 -0.208008 0.760044 140 114 124 
0.140751 -0.202148 0.752930 140 111 123 
0.143555 -0.205478 0.758789 140 113 124 
0.143555 -0.202148 0.757096 138 112 123 
0.141679 -0.196289 0.752930 136 111 123 
0.143555 -0.196289 0.756041 135 113 122 
0.141529 -0.190430 0.752930 134 112 122 
0.143555 -0.190430 0.756092 132 114 121 
0.140833 -0.184570 0.752930 131 112 121 
0.143555 -0.184570 0.757152 128 116 121 
0.144125 -0.213867 0.764648 142 116 125 
0.147313 -0.213867 0.770508 139 117 125 
0.146506 -0.208008 0.764648 137 115 124 
0.149414 -0.209226 0.770508 136 118 125 
0.149414 -0.208008 0.769513 136 118 125 
0.144702 -0.202148 0.758789 138 113 123 
0.148060 -0.202148 0.764648 134 117 124 
0.149414 -0.202148 0.766742 133 119 124 
0.145187 -0.196289 0.758789 134 114 123 
0.148826 -0.196289 0.764648 131 118 124 
0.149414 -0.196289 0.765594 131 119 123 
0.145349 -0.190430 0.758789 131 115 121 
0.149089 -0.190430 0.764648 128 120 121 
0.149414 -0.190430 0.765155 127 120 122 
0.144833 -0.184570 0.758789 128 116 121 
0.148614 -0.184570 0.764648 125 119 121 
0.149414 -0.184570 0.765790 125 120 121 
0.150174 -0.208008 0.770508 136 119 125 
0.153579 -0.184570 0.770508 124 121 121 
0.073242 -0.208117 0.776367 106 83 96 
0.073182 -0.208008 0.776367 106 83 96 
0.073242 -0.208008 0.775398 106 83 96 
0.073242 -0.208008 0.779303 107 87 98 
0.073242 -0.208634 0.788086 108 98 104 
0.072891 -0.208008 0.788086 108 98 104 
0.073242 -0.208008 0.783251 107 93 101 
0.073242 -0.203160 0.764648 104 75 92 
0.072917 -0.202148 0.764648 103 75 92 
0.073242 -0.202148 0.760999 104 72 91 
0.073242 -0.206459 0.770508 105 81 94 
0.072161 -0.202148 0.770508 102 79 94 
0.071805 -0.202148 0.776367 103 85 97 
0.073242 -0.207802 0.782227 107 92 100 
0.071324 -0.202148 0.782227 103 89 98 
0.071120 -0.202148 0.788086 105 96 102 
0.073242 -0.197365 0.752930 108 74 97 
0.073041 -0.196289 0.752930 108 75 98 
0.073242 -0.200660 0.758789 105 72 92 
0.072396 -0.196289 0.758789 105 76 97 
0.071989 -0.196289 0.764648 103 78 97 
0.071358 -0.196289 0.770508 102 82 97 
0.070931 -0.196289 0.776367 101 86 98 
0.070518 -0.196289 0.782227 103 92 100 
0.070353 -0.196289 0.788086 103 96 101 
0.073050 -0.190430 0.752930 106 79 106 
0.072261 -0.190430 0.758789 102 78 102 
0.071561 -0.190430 0.764648 100 79 99 
0.071062 -0.190430 0.770508 99 82 97 
0.070437 -0.190430 0.776367 98 86 97 
0.070116 -0.190430 0.782227 100 92 98 
0.069559 -0.190430 0.788086 103 98 101 
0.073242 -0.188009 0.752930 105 78 105 
0.072626 -0.184570 0.758789 97 75 99 
0.073242 -0.184570 0.754765 100 76 103 
0.072068 -0.184570 0.764648 95 76 97 
0.071434 -0.184570 0.770508 95 79 95 
0.070926 -0.184570 0.776367 95 83 95 
0.070144 -0.184570 0.782227 97 90 96 
0.069705 -0.184570 0.788086 98 95 97 
0.079102 -0.219727 0.788303 113 99 107 
0.079102 -0.214921 0.764648 111 80 95 
0.078356 -0.213867 0.764648 110 79 93 
0.079102 -0.213867 0.760007 111 74 91 
0.079102 -0.216211 0.770508 110 84 97 
0.077354 -0.213867 0.770508 110 84 96 
0.079102 -0.217717 0.776367 111 91 101 
0.076842 -0.213867 0.776367 111 88 99 
0.079102 -0.218289 0.782227 111 93 102 
0.076119 -0.213867 0.782227 109 93 101 
0.079102 -0.219684 0.788086 113 99 107 
0.075772 -0.213867 0.788086 110 95 103 
0.079102 -0.210661 0.752930 113 72 90 
0.077498 -0.208008 0.752930 113 72 89 
0.079102 -0.213234 0.758789 111 73 90 
0.076661 -0.208008 0.758789 111 74 90 
0.075241 -0.208008 0.764648 108 77 92 
0.073788 -0.208008 0.770508 106 81 95 
0.073327 -0.208008 0.782227 107 92 100 
0.074776 -0.202148 0.752930 109 70 90 
0.073641 -0.202148 0.758789 105 71 91 
0.073641 -0.184570 0.752930 102 77 104 
0.084961 -0.225668 0.782227 115 101 109 
0.084867 -0.225586 0.782227 115 101 109 
0.084961 -0.225586 0.781989 115 101 109 
0.084961 -0.227187 0.788086 115 102 108 
0.083290 -0.225586 0.788086 115 101 108 
0.084961 -0.220265 0.758789 117 85 100 
0.084256 -0.219727 0.758789 116 84 99 
0.084961 -0.219727 0.754169 118 84 98 
0.084961 -0.221332 0.764648 117 86 100 
0.082785 -0.219727 0.764648 115 87 100 
0.084961 -0.222348 0.770508 115 86 98 
0.081695 -0.219727 0.770508 113 88 99 
0.084961 -0.223585 0.776367 113 89 100 
0.080366 -0.219727 0.776367 112 94 103 
0.080068 -0.219727 0.782227 112 94 102 
0.079130 -0.219727 0.788086 113 99 107 
0.084961 -0.219178 0.752930 119 83 98 
0.081512 -0.213867 0.752930 116 73 91 
0.079482 -0.213867 0.758789 112 73 90 
0.090820 -0.231696 0.788086 118 101 109 
0.090521 -0.231445 0.788086 118 100 109 
0.090820 -0.231445 0.787510 118 100 109 
0.090820 -0.231751 0.793945 119 95 106 
0.090820 -0.226824 0.764648 118 95 105 
0.089124 -0.225586 0.764648 118 94 105 
0.090820 -0.225586 0.759704 117 91 102 
0.090820 -0.227678 0.770508 120 99 108 
0.088136 -0.225586 0.770508 118 92 103 
0.090820 -0.228715 0.776367 119 98 107 
0.086749 -0.225586 0.776367 115 92 103 
0.090820 -0.229438 0.782227 118 98 108 
0.090820 -0.222886 0.752930 121 87 101 
0.085447 -0.219727 0.752930 119 84 98 
0.090820 -0.224952 0.758789 117 89 101 
0.096008 -0.231445 0.770508 120 105 113 
0.093945 -0.231445 0.776367 119 103 111 
0.092873 -0.231445 0.782227 118 101 109 
0.095377 -0.225586 0.752930 126 93 107 
0.091495 -0.225586 0.758789 118 91 103 
0.073242 -0.196289 0.751985 108 75 98 
0.073242 -0.190430 0.751810 107 79 106 
0.079102 -0.208141 0.747070 116 69 88 
0.079007 -0.208008 0.747070 116 69 88 
0.079102 -0.208008 0.746842 117 69 87 
0.076822 -0.202148 0.747070 114 70 89 
0.079102 -0.202148 0.742141 119 69 89 
0.079102 -0.200560 0.741211 120 70 89 
0.077797 -0.196289 0.741211 118 71 92 
0.079102 -0.196289 0.738685 122 71 91 
0.075221 -0.196289 0.747070 112 73 96 
0.076783 -0.190430 0.741211 117 77 102 
0.079102 -0.190430 0.736009 123 74 96 
0.074579 -0.190430 0.747070 111 78 106 
0.076874 -0.184570 0.741211 112 77 105 
0.079102 -0.184570 0.735986 119 75 100 
0.075274 -0.184570 0.747070 107 77 106 
0.084961 -0.215231 0.747070 121 75 92 
0.083655 -0.213867 0.747070 121 73 91 
0.084961 -0.213867 0.744414 123 72 91 
0.084961 -0.210646 0.741211 126 72 90 
0.083022 -0.208008 0.741211 125 70 88 
0.084961 -0.208008 0.738202 130 71 89 
0.084961 -0.204085 0.735352 133 73 89 
0.083903 -0.202148 0.735352 132 72 89 
0.084961 -0.202148 0.733817 134 74 89 
0.079718 -0.202148 0.741211 121 69 89 
0.081442 -0.196289 0.735352 128 72 90 
0.084961 -0.196289 0.730474 137 76 91 
0.084961 -0.192385 0.729492 138 78 92 
0.084525 -0.190430 0.729492 138 78 92 
0.084961 -0.190430 0.729035 139 79 92 
0.079632 -0.190430 0.735352 125 74 95 
0.084494 -0.184570 0.729492 133 77 93 
0.084961 -0.184570 0.729062 134 78 93 
0.079591 -0.184570 0.735352 120 75 99 
0.090820 -0.220558 0.747070 126 83 99 
0.089185 -0.219727 0.747070 124 81 98 
0.090820 -0.219727 0.744077 128 81 99 
0.090820 -0.217348 0.741211 131 80 97 
0.087320 -0.213867 0.741211 128 74 91 
0.090820 -0.213867 0.736758 136 77 94 
0.090820 -0.212091 0.735352 138 78 93 
0.087415 -0.208008 0.735352 135 74 90 
0.090820 -0.208008 0.731414 141 77 91 
0.090820 -0.204765 0.729492 142 79 92 
0.089168 -0.202148 0.729492 141 79 92 
0.090820 -0.202148 0.727878 143 80 93 
0.086191 -0.196289 0.729492 139 78 93 
0.090820 -0.196289 0.726247 146 84 98 
0.090820 -0.190430 0.725952 145 87 99 
0.090820 -0.184570 0.725470 142 88 101 
0.096680 -0.225586 0.751984 128 93 108 
0.096680 -0.220235 0.741211 137 88 104 
0.094008 -0.219727 0.741211 134 85 102 
0.096680 -0.219727 0.739488 139 88 105 
0.096680 -0.222452 0.747070 133 91 105 
0.096680 -0.215986 0.735352 143 85 101 
0.092511 -0.213867 0.735352 139 79 95 
0.096680 -0.213867 0.732266 145 83 99 
0.096680 -0.210387 0.729492 147 83 98 
0.093312 -0.208008 0.729492 145 79 93 
0.096680 -0.208008 0.727265 149 84 98 
0.096680 -0.202148 0.724673 148 83 97 
0.096680 -0.196289 0.723678 147 87 100 
0.096680 -0.190430 0.723742 147 96 108 
0.096680 -0.184570 0.723675 143 95 109 
0.078199 -0.178711 0.741211 108 71 94 
0.079102 -0.178711 0.738663 111 72 94 
0.076816 -0.178711 0.747070 102 71 94 
0.075681 -0.178711 0.752930 98 70 92 
0.079102 -0.177280 0.741211 106 70 90 
0.079102 -0.174647 0.747070 98 69 83 
0.079032 -0.172852 0.752930 94 71 80 
0.079102 -0.172852 0.752560 94 70 80 
0.079102 -0.172766 0.752930 94 71 80 
0.084961 -0.182738 0.729492 132 77 93 
0.081373 -0.178711 0.735352 117 73 93 
0.084961 -0.178711 0.730622 125 75 92 
0.084961 -0.174566 0.735352 114 71 86 
0.083507 -0.172852 0.741211 103 68 80 
0.084961 -0.172852 0.738010 108 69 82 
0.080670 -0.172852 0.747070 96 68 78 
0.084961 -0.171542 0.741211 98 67 77 
0.084961 -0.168877 0.747070 80 67 70 
0.084880 -0.166992 0.752930 73 72 71 
0.084961 -0.166992 0.752655 73 72 71 
0.084961 -0.166908 0.752930 73 72 71 
0.086173 -0.178711 0.729492 127 77 94 
0.090820 -0.178711 0.726045 134 84 99 
0.090820 -0.173418 0.729492 124 76 90 
0.086745 -0.172852 0.735352 113 71 85 
0.090820 -0.172852 0.730043 123 75 89 
0.090820 -0.170080 0.735352 111 72 83 
0.090820 -0.167099 0.741211 91 67 74 
0.087473 -0.166992 0.747070 74 65 67 
0.090820 -0.166992 0.741428 90 67 74 
0.090820 -0.164293 0.747070 76 70 72 
0.090820 -0.162112 0.752930 77 78 78 
0.096680 -0.178711 0.723969 138 90 108 
0.091429 -0.172852 0.729492 124 76 91 
0.096680 -0.172852 0.725908 133 87 104 
0.096680 -0.169533 0.729492 129 84 98 
0.094573 -0.166992 0.735352 113 77 86 
0.096680 -0.166992 0.732557 123 82 92 
0.090972 -0.166992 0.741211 91 67 74 
0.096680 -0.165403 0.735352 115 80 89 
0.096680 -0.163058 0.741211 99 79 85 
0.095282 -0.161133 0.747070 83 79 83 
0.096680 -0.161133 0.745076 88 80 85 
0.092099 -0.161133 0.752930 79 81 81 
0.096680 -0.160311 0.747070 86 80 85 
0.096680 -0.157984 0.752930 84 80 82 
0.073242 -0.182446 0.758789 96 73 97 
0.073242 -0.180457 0.764648 92 72 91 
0.073089 -0.178711 0.770508 89 72 85 
0.073242 -0.178711 0.769282 89 71 86 
0.072503 -0.178711 0.776367 88 76 85 
0.071698 -0.178711 0.782227 90 83 87 
0.070597 -0.178711 0.788086 94 91 91 
0.068892 -0.178711 0.793945 99 98 95 
0.073242 -0.178357 0.770508 88 72 85 
0.073242 -0.176893 0.776367 86 75 83 
0.073242 -0.174154 0.782227 83 80 83 
0.071818 -0.172852 0.788086 87 88 87 
0.073242 -0.172852 0.784066 83 82 83 
0.074714 -0.178711 0.758789 95 70 90 
0.073934 -0.178711 0.764648 92 70 88 
0.077873 -0.172852 0.758789 91 71 80 
0.077136 -0.172852 0.764648 88 72 79 
0.076325 -0.172852 0.770508 84 72 77 
0.075237 -0.172852 0.776367 82 74 78 
0.073816 -0.172852 0.782227 82 80 82 
0.079102 -0.171265 0.758789 90 73 79 
0.079102 -0.170036 0.764648 85 73 77 
0.079102 -0.168492 0.770508 80 72 74 
0.078932 -0.166992 0.776367 75 73 74 
0.079102 -0.166992 0.775711 75 72 73 
0.076779 -0.166992 0.782227 76 78 78 
0.079102 -0.166719 0.776367 74 73 73 
0.083272 -0.166992 0.758789 79 78 76 
0.081777 -0.166992 0.764648 82 77 77 
0.080339 -0.166992 0.770508 79 74 75 
0.084961 -0.165197 0.758789 79 80 78 
0.084961 -0.163386 0.764648 81 80 79 
0.084961 -0.161749 0.770508 76 73 74 
0.083605 -0.161133 0.776367 67 69 69 
0.084961 -0.161133 0.772624 72 71 71 
0.084961 -0.158842 0.776367 67 67 66 
0.089475 -0.161133 0.758789 83 84 83 
0.090820 -0.161133 0.755419 80 83 81 
0.087398 -0.161133 0.764648 82 80 80 
0.085574 -0.161133 0.770508 76 73 74 
0.090820 -0.159981 0.758789 82 82 81 
0.090820 -0.157674 0.764648 78 73 73 
0.090820 -0.155499 0.770508 66 61 61 
0.090820 -0.155273 0.770939 65 60 60 
0.096680 -0.155749 0.758789 83 76 77 
0.093954 -0.155273 0.764648 76 68 69 
0.096680 -0.155273 0.759968 82 74 75 
0.091086 -0.155273 0.770508 65 60 61 
0.096680 -0.152631 0.764648 76 69 67 
0.096680 -0.149414 0.769174 74 71 63 
0.102539 -0.225586 0.749700 137 96 111 
0.102539 -0.220650 0.741211 143 92 108 
0.102539 -0.219727 0.738919 145 92 108 
0.102539 -0.223074 0.747070 140 93 109 
0.102539 -0.216214 0.735352 148 91 106 
0.102539 -0.213867 0.730886 150 91 106 
0.102539 -0.212048 0.729492 151 91 105 
0.102539 -0.208008 0.725448 153 90 103 
0.102539 -0.203781 0.723633 150 86 101 
0.099991 -0.202148 0.723633 149 84 99 
0.102539 -0.202148 0.722899 149 85 100 
0.096849 -0.196289 0.723633 147 87 100 
0.102539 -0.196289 0.722261 145 88 104 
0.097126 -0.190430 0.723633 147 96 108 
0.102539 -0.190430 0.722350 142 93 109 
0.096897 -0.184570 0.723633 143 95 110 
0.102539 -0.184570 0.722483 141 94 115 
0.107420 -0.219727 0.741211 149 96 112 
0.108398 -0.221476 0.747070 147 96 110 
0.108398 -0.219727 0.741756 150 97 112 
0.108398 -0.215477 0.735352 151 96 110 
0.108398 -0.213867 0.731028 153 96 109 
0.108398 -0.219285 0.741211 150 96 112 
0.108398 -0.211928 0.729492 153 94 108 
0.108398 -0.208008 0.725190 152 90 105 
0.108398 -0.204158 0.723633 151 89 105 
0.108398 -0.202148 0.722754 151 88 106 
0.108398 -0.196289 0.721786 145 90 110 
0.108398 -0.190430 0.721873 142 95 118 
0.108398 -0.184570 0.722126 144 102 131 
0.114258 -0.221183 0.747070 150 100 114 
0.114258 -0.219727 0.743953 151 100 113 
0.114258 -0.214942 0.735352 151 97 111 
0.114258 -0.213867 0.732805 152 96 111 
0.114258 -0.217391 0.741211 151 98 112 
0.114258 -0.210161 0.729492 153 95 111 
0.114258 -0.208008 0.726700 153 94 110 
0.114258 -0.202226 0.723633 154 95 114 
0.114258 -0.202148 0.723585 154 95 114 
0.114258 -0.196289 0.722672 150 98 122 
0.114258 -0.190430 0.722528 148 103 133 
0.114258 -0.184570 0.722687 145 104 138 
0.120117 -0.220123 0.747070 150 100 115 
0.120117 -0.219727 0.746455 150 100 115 
0.119503 -0.213867 0.735352 152 98 113 
0.120117 -0.215866 0.741211 150 99 113 
0.120117 -0.213867 0.735666 152 98 113 
0.118959 -0.208008 0.729492 154 98 114 
0.120117 -0.213500 0.735352 152 98 113 
0.120117 -0.208008 0.730055 154 99 115 
0.114374 -0.202148 0.723633 154 95 114 
0.120117 -0.207049 0.729492 154 99 116 
0.120117 -0.202148 0.725783 154 100 120 
0.116634 -0.196289 0.723633 151 100 125 
0.120117 -0.196289 0.724970 152 103 128 
0.116671 -0.190430 0.723633 148 102 133 
0.120117 -0.190430 0.724998 148 102 133 
0.116233 -0.184570 0.723633 145 103 136 
0.120117 -0.184570 0.725334 145 100 132 
0.120595 -0.219727 0.747070 150 100 115 
0.125977 -0.219727 0.751757 149 102 117 
0.124935 -0.213867 0.741211 151 101 116 
0.125977 -0.215848 0.747070 150 102 117 
0.125977 -0.213867 0.742044 150 102 117 
0.125977 -0.208485 0.735352 151 104 119 
0.125977 -0.208008 0.734685 151 104 119 
0.125977 -0.213050 0.741211 151 102 118 
0.124815 -0.202148 0.729492 152 103 122 
0.125977 -0.202148 0.730258 151 103 122 
0.125831 -0.196289 0.729492 149 102 126 
0.125977 -0.196289 0.729582 149 102 125 
0.125774 -0.190430 0.729492 146 99 127 
0.125977 -0.190430 0.729624 146 99 127 
0.123911 -0.184570 0.729492 144 100 128 
0.125977 -0.184570 0.731176 144 99 125 
0.130692 -0.213867 0.747070 148 108 121 
0.131836 -0.213867 0.748078 147 110 122 
0.126440 -0.208008 0.735352 151 104 120 
0.130940 -0.208008 0.741211 148 107 121 
0.131836 -0.212786 0.747070 147 109 122 
0.131836 -0.208008 0.742071 147 107 121 
0.128902 -0.202148 0.735352 148 105 122 
0.131836 -0.206409 0.741211 147 107 122 
0.131836 -0.202148 0.738529 146 106 122 
0.130214 -0.196289 0.735352 145 103 124 
0.131836 -0.196289 0.737040 145 103 123 
0.130139 -0.190430 0.735352 144 101 125 
0.131836 -0.190430 0.737193 143 102 123 
0.129126 -0.184570 0.735352 141 100 123 
0.131836 -0.184570 0.738701 140 102 121 
0.135141 -0.208008 0.747070 145 110 122 
0.137695 -0.208008 0.750338 143 111 123 
0.133343 -0.202148 0.741211 145 107 123 
0.137502 -0.202148 0.747070 142 108 122 
0.137695 -0.202148 0.747298 141 108 122 
0.134277 -0.196289 0.741211 142 105 124 
0.137695 -0.200780 0.747070 141 108 122 
0.137695 -0.196289 0.746215 140 107 122 
0.134172 -0.190430 0.741211 141 104 123 
0.137695 -0.190430 0.746483 138 107 121 
0.133284 -0.184570 0.741211 138 104 122 
0.137695 -0.187954 0.747070 136 108 121 
0.137029 -0.184570 0.747070 134 108 121 
0.137695 -0.184570 0.747971 134 109 121 
0.138167 -0.196289 0.747070 139 108 123 
0.138045 -0.190430 0.747070 138 107 121 
0.098664 -0.178711 0.723633 139 93 113 
0.102539 -0.178711 0.723001 141 98 123 
0.102539 -0.176339 0.723633 140 98 122 
0.102539 -0.172852 0.724654 140 98 120 
0.101941 -0.166992 0.729492 133 93 108 
0.102539 -0.166992 0.729197 134 94 110 
0.102539 -0.166778 0.729492 134 93 109 
0.102539 -0.163037 0.735352 122 88 98 
0.100112 -0.161133 0.741211 103 82 88 
0.102539 -0.161133 0.738806 114 85 92 
0.102539 -0.160078 0.741211 109 84 90 
0.102539 -0.157833 0.747070 99 83 86 
0.102364 -0.155273 0.752930 93 82 82 
0.102539 -0.155273 0.752755 94 83 82 
0.102539 -0.155186 0.752930 93 82 82 
0.108398 -0.178711 0.722914 141 103 136 
0.108398 -0.176645 0.723633 141 102 132 
0.108398 -0.172852 0.725018 140 100 126 
0.108398 -0.166992 0.729016 136 96 118 
0.108398 -0.166570 0.729492 136 96 117 
0.108398 -0.162413 0.735352 126 92 106 
0.108398 -0.161133 0.737170 123 91 103 
0.108398 -0.159052 0.741211 117 89 98 
0.108398 -0.156607 0.747070 108 87 93 
0.108398 -0.155273 0.750184 103 86 89 
0.108398 -0.153979 0.752930 96 82 84 
0.114258 -0.180917 0.723633 142 103 136 
0.111455 -0.178711 0.723633 141 102 135 
0.114258 -0.178711 0.724209 141 102 134 
0.114258 -0.172852 0.726856 140 97 125 
0.114258 -0.169555 0.729492 135 94 119 
0.109392 -0.166992 0.729492 136 96 117 
0.114258 -0.166992 0.731617 132 92 115 
0.114258 -0.164101 0.735352 128 93 112 
0.114258 -0.161133 0.739446 124 93 107 
0.114258 -0.160151 0.741211 120 91 104 
0.114258 -0.157275 0.747070 108 87 95 
0.114258 -0.155273 0.751437 99 82 89 
0.114258 -0.154374 0.752930 95 81 86 
0.120117 -0.178711 0.727365 142 99 129 
0.120117 -0.175337 0.729492 139 97 124 
0.117717 -0.172852 0.729492 138 96 122 
0.120117 -0.172852 0.731129 136 94 120 
0.120117 -0.168510 0.735352 132 94 115 
0.118276 -0.166992 0.735352 131 93 114 
0.120117 -0.166992 0.736751 130 94 114 
0.120117 -0.163376 0.741211 123 94 110 
0.116181 -0.161133 0.741211 122 93 107 
0.120117 -0.161133 0.744770 118 94 106 
0.120117 -0.159717 0.747070 111 90 101 
0.120117 -0.156500 0.752930 95 81 87 
0.116388 -0.155273 0.752930 95 80 86 
0.121858 -0.178711 0.729492 141 100 127 
0.125977 -0.178711 0.733604 139 99 123 
0.125977 -0.176430 0.735352 137 99 121 
0.123319 -0.172852 0.735352 135 97 119 
0.125977 -0.172852 0.738411 134 98 118 
0.125977 -0.170040 0.741211 130 99 117 
0.123487 -0.166992 0.741211 128 98 114 
0.125977 -0.166992 0.744468 126 100 115 
0.125977 -0.164636 0.747070 119 97 110 
0.121954 -0.161133 0.747070 114 93 105 
0.125977 -0.161133 0.751270 106 91 100 
0.125977 -0.159585 0.752930 103 91 97 
0.127085 -0.178711 0.735352 138 100 122 
0.131836 -0.179964 0.741211 136 104 121 
0.131263 -0.178711 0.741211 135 104 121 
0.131836 -0.178711 0.741968 135 104 121 
0.127687 -0.172852 0.741211 132 100 118 
0.131836 -0.172852 0.746688 128 104 118 
0.131836 -0.172380 0.747070 127 104 117 
0.127790 -0.166992 0.747070 123 100 114 
0.131836 -0.166992 0.752631 116 103 112 
0.131836 -0.166625 0.752930 115 103 112 
0.127425 -0.161133 0.752930 106 94 101 
0.134992 -0.178711 0.747070 132 108 121 
0.137695 -0.178711 0.751037 129 110 120 
0.132113 -0.172852 0.747070 127 105 118 
0.137695 -0.176225 0.752930 125 110 118 
0.135726 -0.172852 0.752930 122 108 117 
0.132071 -0.166992 0.752930 116 103 112 
0.138954 -0.178711 0.752930 128 111 119 
0.097592 -0.155273 0.758789 84 76 77 
0.102539 -0.152212 0.758789 82 74 73 
0.101652 -0.149414 0.764648 73 69 65 
0.102539 -0.149414 0.763780 74 69 66 
0.108398 -0.150514 0.758789 80 73 72 
0.108398 -0.149414 0.760477 76 70 69 
0.114258 -0.150063 0.758789 82 76 75 
0.114258 -0.149414 0.759629 80 75 74 
0.120117 -0.155273 0.754929 89 77 82 
0.120117 -0.151099 0.758789 91 84 82 
0.125977 -0.155273 0.758411 95 88 88 
0.125977 -0.154296 0.758789 97 90 88 
0.131836 -0.161133 0.757597 107 102 105 
0.131836 -0.159120 0.758789 108 103 103 
0.126648 -0.155273 0.758789 97 90 89 
0.131836 -0.155273 0.761354 110 105 100 
0.137695 -0.172852 0.755792 119 109 116 
0.137695 -0.168406 0.758789 115 110 115 
0.136834 -0.166992 0.758789 114 109 113 
0.137695 -0.166992 0.759822 114 110 114 
0.133228 -0.161133 0.758789 109 104 106 
0.143555 -0.180953 0.758789 125 115 120 
0.142726 -0.178711 0.758789 123 114 119 
0.143555 -0.178711 0.760177 122 115 119 
0.140179 -0.172852 0.758789 119 112 117 
0.143555 -0.172852 0.763320 119 117 119 
0.143555 -0.168914 0.764648 120 118 118 
0.142877 -0.166992 0.764648 120 118 117 
0.143555 -0.166992 0.765325 121 119 117 
0.147099 -0.178711 0.764648 122 117 119 
0.149414 -0.178711 0.767674 122 119 120 
0.145162 -0.172852 0.764648 120 118 119 
0.149414 -0.172852 0.768585 123 122 121 
0.153035 -0.178711 0.770508 123 121 120 
